ncols         335
nrows         32
xllcorner     464250.82
yllcorner     5693070.77
cellsize      10
NODATA_value  -9999
1813.055 1813.664 1813.176 1813.613 1813.142 1811.373 1809.604 1807.835 1806.066 1803.984 1801.631 1799.277 1796.924 1794.571 1792.395 1790.237 1787.117 1788.204 1796.422 1802.192 1809.496 1816.8 1823.651 1827.544 1831.436 1835.329 1838.558 1841.759 1844.96 1848.161 1850.839 1852.388 1853.937 1855.485 1856.506 1857.103 1857.699 1858.087 1857.215 1856.342 1855.47 1854.597 1853.173 1850.403 1847.633 1846.196 1846.394 1846.591 1846.789 1846.986 1847.263 1847.827 1848.391 1848.633 1848.839 1849.044 1849.531 1850.062 1850.593 1851.124 1851.656 1851.699 1850.332 1848.966 1847.599 1846.233 1844.672 1842.68 1840.688 1838.695 1836.885 1832.864 1834.184 1835.504 1836.778 1838.011 1839.244 1841.792 1842.204 1840.103 1838.261 1836.419 1834.577 1832.734 1830.892 1832.328 1834.861 1837.393 1839.926 1842.458 1842.703 1836.274 1829.844 1823.415 1816.986 1810.557 1804.499 1800.056 1797.965 1795.133 1792.215 1789.297 1786.379 1783.461 1780.543 1777.625 1772.88 1766.171 1759.462 1752.753 1746.045 1734.141 1721.888 1713.336 1703.627 1693.78 1683.932 1675.953 1672.21 1668.467 1664.724 1659.371 1656.041 1648.931 1642.271 1636.471 1631.154 1626.109 1620.868 1615.442 1609.474 1603.127 1595.789 1590.325 1584.846 1579.426 1574.055 1568.683 1563.312 1557.94 1552.409 1547.347 1542.385 1537.423 1532.461 1527.5 1522.538 1517.576 1513.766 1509.961 1506.649 1503.541 1500.434 1497.327 1494.155 1490.473 1485.86 1480.945 1475.115 1469.286 1463.456 1457.626 1451.796 1445.966 1440.136 1435.715 1432.032 1428.316 1424.518 1420.72 1416.922 1412.6 1406.848 1401.096 1393.974 1386.343 1380.602 1377.074 1374.141 1371.067 1363.11 1354.495 1351.817 1349.708 1348.181 1345.077 1342.605 1340.148 1337.414 1332.815 1328.458 1324.659 1320.215 1315.385 1311.984 1308.486 1305.272 1302.825 1300.378 1297.965 1295.236 1291.359 1287.481 1283.603 1279.726 1275.848 1272.018 1268.359 1264.7 1260.547 1256.357 1252.304 1248.252 1244.2 1240.148 1236.086 1230.256 1225.266 1221.081 1216.896 1212.71 1208.525 1204.296 1199.018 1193.741 1188.208 1182.421 1176.633 1170.846 1164.843 1158.426 1152.009 1145.744 1139.713 1133.682 1127.651 1121.789 1115.959 1110.128 1103.398 1096.591 1089.784 1084.744 1082.054 1079.365 1076.676 1073.987 1071.468 1069.401 1066.928 1062.308 1057.687 1053.122 1048.817 1044.512 1040.206 1037.213 1033.83 1033.331 1032.185 1029.053 1026.498 1022.03 1017.515 1013.711 1009.907 1006.103 1002.372 999.072 994.2015 990.6698 987.1155 983.5311 979.9467 976.3623 972.7779 969.1935 967.8876 966.8862 965.1376 963.383 961.6284 959.8738 958.1296 956.771 955.4124 954.0538 952.3995 950.1371 947.8746 946.2729 945.2961 944.3193 943.3425 942.3657 941.3889 938.994 932.8138 926.407 920.0003 913.5935 907.1867 900.78 898.5549 893.0581 887.4327 881.7948 876.1465 870.7838 865.186 859.8461 855.7903 852.024 848.2578 844.4916 840.7253 836.9591 833.3503 830.3721 830.8134 831.7117 832.3996 832.4046 832.3961 832.0787 831.7612 831.4437 831.1058 830.7244 830.3431 830.1306 831.7215 833.3124 834.9033 836.5428
1814.385 1814.995 1813.188 1813.624 1814.061 1814.497 1814.934 1813.402 1811.633 1809.537 1807.183 1804.83 1802.476 1800.123 1797.77 1795.416 1794.926 1794.926 1799.177 1806.482 1813.786 1821.09 1827.854 1831.746 1835.196 1838.397 1841.598 1844.799 1848 1851.201 1853.858 1855.407 1856.956 1858.505 1860.054 1861.398 1861.995 1862.359 1861.487 1860.614 1859.742 1858.869 1857.996 1857.078 1854.308 1852.915 1853.113 1853.311 1853.725 1854.289 1854.853 1855.417 1855.981 1856.217 1856.422 1856.628 1856.833 1857.038 1857.243 1857.707 1858.238 1858.255 1856.889 1855.494 1853.501 1851.509 1849.517 1847.524 1845.532 1843.54 1841.963 1842.654 1846.221 1847.149 1847.836 1848.524 1849.212 1849.899 1850.18 1847.098 1844.267 1842.424 1840.582 1838.74 1836.898 1838.49 1841.022 1843.555 1846.088 1847.634 1846.434 1840.03 1833.626 1827.222 1820.818 1814.414 1808.01 1802.059 1797.548 1793.2 1790.205 1787.211 1784.217 1781.223 1778.228 1775.234 1770.473 1764.073 1757.674 1751.275 1744.875 1738.368 1729.612 1719.939 1710.092 1700.244 1690.396 1680.549 1676.13 1672.387 1668.645 1662.233 1658.234 1654.121 1647.117 1639.619 1634.523 1629.433 1624.007 1618.581 1613.155 1607.599 1600.947 1594.932 1589.481 1584.109 1578.738 1573.237 1567.475 1561.713 1555.951 1550.395 1546.057 1541.794 1536.832 1531.87 1526.908 1521.946 1517.992 1514.377 1511.269 1508.162 1505.055 1501.947 1498.84 1494.735 1488.906 1483.076 1477.246 1471.416 1465.586 1459.756 1453.926 1448.096 1442.266 1437.423 1433.74 1429.953 1426.155 1422.357 1418.559 1414.642 1408.89 1402.282 1394.65 1387.018 1380.008 1376.747 1373.192 1367.103 1362.249 1359.384 1356.534 1353.991 1351.449 1348.632 1346.109 1343.647 1341.094 1337.848 1334.048 1330.249 1325.877 1319.609 1314.115 1310.651 1307.901 1305.5 1303.312 1301.125 1298.078 1294.455 1290.577 1286.7 1282.822 1279.007 1275.348 1271.689 1268.03 1263.872 1259.667 1255.504 1251.452 1247.399 1243.347 1239.263 1233.433 1227.604 1222.973 1218.788 1214.602 1210.417 1206.165 1200.888 1195.61 1190.332 1184.745 1178.957 1173.17 1167.161 1160.745 1154.344 1148.313 1142.281 1136.25 1130.219 1124.359 1118.529 1112.037 1105.23 1098.423 1091.616 1086.617 1083.927 1081.238 1078.549 1075.86 1073.171 1070.595 1068.092 1063.471 1059.085 1054.78 1050.474 1046.169 1041.864 1039.247 1036.107 1033.074 1030.085 1027.102 1024.857 1022.713 1019.845 1016.187 1012.383 1008.579 1004.775 1000.971 996.9793 993.4272 989.8428 986.2584 982.674 979.0896 975.5052 971.9208 970.6148 968.877 967.1223 965.3677 963.6131 961.8585 960.1177 958.7592 957.4006 956.0421 954.6835 952.7753 950.5128 948.934 947.9572 946.9805 946.0037 945.0269 943.5925 940.4646 933.6397 926.8148 919.9899 913.3562 906.9495 900.5427 899.8626 895.2526 890.1185 885.9048 879.9744 874.1893 867.0266 861.7198 857.2363 852.7527 848.5175 844.7513 840.985 837.2188 834.0169 831.291 830.4908 831.4879 832.4301 832.8257 832.535 832.1651 831.7993 831.4334 831.0675 830.7017 830.3358 830.1306 831.7215 833.3612 834.9872 836.6837
1815.715 1815.118 1813.2 1813.636 1814.073 1814.509 1814.946 1815.382 1815.893 1815.194 1812.928 1810.662 1808.396 1806.13 1803.431 1800.515 1800.475 1801.521 1802.901 1810.247 1817.65 1825.053 1831.827 1835.035 1838.236 1841.437 1844.638 1847.839 1851.04 1854.241 1856.877 1858.426 1859.975 1861.524 1863.073 1864.622 1866.171 1866.631 1865.758 1864.886 1864.013 1863.141 1862.268 1861.396 1860.523 1859.635 1860.186 1860.75 1861.314 1861.879 1862.443 1863.007 1863.571 1863.801 1864.006 1864.212 1864.417 1864.622 1864.827 1865.032 1865.238 1864.798 1862.424 1860.338 1858.346 1856.354 1854.361 1852.369 1850.377 1848.384 1847.042 1847.671 1853.833 1855.207 1855.895 1856.582 1857.27 1857.957 1858.157 1855.075 1851.993 1848.911 1846.588 1844.746 1842.903 1844.652 1847.184 1849.4 1850.427 1851.455 1850.106 1843.702 1837.298 1830.894 1824.49 1818.149 1811.871 1805.956 1801.445 1796.934 1792.423 1787.913 1783.402 1778.891 1775.604 1772.609 1767.706 1761.307 1754.907 1749.534 1744.165 1738.797 1733.194 1725.44 1716.556 1706.708 1696.861 1687.013 1680.051 1676.308 1671.566 1665.095 1660.427 1659.513 1651.307 1642.937 1637.892 1632.572 1627.146 1621.72 1616.294 1610.868 1605.442 1599.54 1594.065 1588.303 1582.541 1576.779 1571.017 1565.255 1559.519 1553.991 1548.937 1544.741 1540.546 1536.24 1531.278 1526.316 1522.218 1518.997 1515.89 1512.782 1509.093 1504.716 1500.339 1496.709 1491.67 1486.313 1480.45 1474.068 1467.717 1461.887 1456.057 1450.227 1444.397 1439.131 1435.388 1431.59 1427.792 1423.995 1420.197 1416.399 1410.589 1402.957 1395.326 1387.694 1380.062 1376.266 1374.215 1369.193 1366.768 1364.273 1361.407 1358.708 1356.034 1353.102 1350.169 1347.516 1345.054 1341.879 1338.692 1335.506 1331.538 1325.27 1318.969 1313.036 1310.848 1308.66 1306.472 1304.21 1300.875 1297.539 1293.674 1289.796 1285.996 1282.337 1278.678 1275.019 1271.36 1267.197 1262.992 1258.786 1254.651 1250.599 1246.547 1242.44 1236.61 1230.781 1224.951 1220.68 1216.494 1212.309 1208.034 1202.757 1197.479 1192.202 1186.924 1181.281 1175.494 1169.48 1163.063 1156.912 1150.881 1144.849 1138.818 1132.787 1126.929 1120.676 1113.869 1107.062 1100.255 1093.448 1088.49 1085.801 1083.111 1080.422 1077.733 1075.044 1072.354 1069.309 1065.048 1060.743 1056.437 1052.132 1047.827 1043.522 1041.188 1038.208 1033.79 1028.958 1025.372 1022.639 1020.495 1017.562 1014.185 1010.807 1007.429 1004.052 1000.674 999.7349 996.5007 992.8705 989.2404 985.6102 981.98 978.3498 974.7196 972.6163 970.8617 969.1071 967.3525 965.5978 963.8433 962.106 960.7474 959.3888 958.0302 956.6716 955.313 953.151 951.5952 950.6183 949.6415 948.3805 946.8208 945.261 942.0391 935.2142 928.3893 921.5645 914.7396 907.9147 901.1149 900.9355 900.9683 894.7936 888.6777 882.9835 876.0944 868.8672 863.5936 859.11 854.6265 850.1429 845.6594 841.2448 837.6618 835.0853 832.5205 830.0173 831.0173 832.0355 832.6534 832.5741 832.2073 831.8405 831.4738 831.107 830.7402 830.3734 830.1841 831.8239 833.4316 835.1281 836.8246
1817.046 1815.013 1813.724 1814.648 1815.571 1816.495 1818.028 1820.042 1822.056 1821.407 1819.141 1816.875 1814.23 1811.313 1808.397 1805.48 1805.484 1806.192 1806.906 1810.512 1820.275 1829.315 1833.679 1837.383 1841.087 1844.477 1847.678 1850.879 1854.08 1857.281 1859.897 1861.446 1862.995 1864.544 1866.092 1867.641 1869.917 1872.272 1871.508 1870.745 1869.981 1869.217 1868.454 1867.69 1867.716 1867.95 1868.014 1868.34 1868.904 1869.468 1870.032 1870.596 1871.161 1871.385 1871.59 1871.796 1872.001 1872.206 1872.473 1872.877 1873.281 1872.832 1870.459 1868.085 1865.711 1863.338 1860.964 1858.59 1856.216 1853.843 1851.551 1853.176 1855.322 1857.117 1861.324 1864.641 1865.328 1866.016 1866.133 1863.051 1859.969 1856.887 1853.805 1850.751 1848.909 1850.814 1852.193 1853.221 1854.248 1855.276 1853.778 1847.374 1840.97 1834.575 1828.296 1822.018 1815.74 1809.853 1805.342 1800.831 1796.32 1791.809 1787.298 1782.787 1778.277 1773.365 1768.037 1762.659 1757.291 1751.922 1746.554 1741.185 1735.532 1727.778 1720.025 1712.271 1703.325 1693.477 1683.972 1680.229 1674.428 1667.957 1662.513 1659.246 1654.891 1646.306 1641.137 1635.711 1630.285 1624.859 1619.433 1614.469 1609.633 1604.255 1597.607 1591.845 1586.083 1580.321 1574.559 1568.797 1563.115 1557.587 1552.06 1547.621 1543.426 1539.23 1535.035 1530.687 1526.725 1522.87 1518.493 1514.116 1509.739 1505.362 1501.28 1497.775 1493.78 1488.423 1483.066 1477.709 1472.352 1466.426 1460.045 1453.663 1447.281 1441.22 1437.568 1433.917 1430.265 1426.613 1422.962 1417.674 1411.009 1403.571 1396.001 1388.37 1380.738 1375.848 1376.168 1373.129 1370.704 1368.28 1365.856 1363.431 1360.504 1357.572 1354.639 1351.706 1348.922 1345.85 1342.447 1338.927 1334.768 1328.367 1321.966 1317.734 1314.008 1311.82 1309.632 1307.007 1303.671 1300.335 1296.77 1292.985 1289.326 1285.667 1282.008 1278.349 1274.69 1270.521 1266.316 1262.111 1257.906 1253.798 1249.746 1245.617 1239.788 1233.958 1228.129 1222.572 1218.386 1214.201 1209.904 1204.626 1199.348 1194.071 1188.793 1183.516 1177.818 1171.798 1165.511 1159.48 1153.449 1147.418 1141.386 1135.355 1129.315 1122.508 1115.701 1108.894 1102.087 1095.28 1090.363 1087.674 1084.984 1082.295 1079.606 1076.498 1072.982 1068.978 1066.037 1061.716 1057.851 1053.79 1049.485 1045.179 1043.068 1038.93 1034.323 1029.716 1025.101 1020.659 1018.277 1015.279 1011.902 1008.524 1005.346 1004.49 1003.633 1003.305 1000.029 996.3987 992.7686 989.1384 985.5082 981.878 977.1103 974.8022 972.8464 971.0918 969.3372 967.5826 965.828 964.0941 962.7355 961.377 960.0184 958.6599 957.3013 955.7892 954.2563 953.1685 951.6088 950.0491 948.4894 946.9296 943.6137 936.7888 929.9639 923.139 916.3141 909.4892 903.0648 901.8076 902.7816 897.4198 891.7776 885.1621 877.935 870.7079 865.4672 860.9837 856.5001 852.0166 847.5331 843.0714 839.2997 836.4498 833.6362 831.0185 830.6003 831.4657 832.0431 832.0749 832.1067 831.9167 831.5499 831.1831 830.8163 830.4495 830.2833 831.8761 833.5726 835.269 836.9655
1818 1818 1817.098 1818.358 1820.372 1822.386 1824.399 1826.413 1828.427 1827.619 1825.029 1822.112 1819.195 1816.279 1813.362 1810.445 1810.492 1811.2 1811.909 1818.656 1826.723 1831.175 1835.531 1839.235 1842.938 1846.642 1850.346 1853.919 1857.12 1860.321 1862.916 1864.465 1866.014 1867.773 1870.87 1873.967 1877.064 1879.339 1878.576 1877.812 1877.048 1876.285 1875.764 1876.163 1876.563 1876.792 1876.855 1876.918 1876.982 1877.058 1877.622 1878.186 1878.75 1878.969 1879.174 1879.38 1879.757 1880.162 1880.566 1880.971 1881.375 1880.867 1878.493 1876.12 1873.746 1871.372 1868.998 1866.625 1863.964 1861.264 1858.564 1860.516 1862.621 1864.727 1866.832 1868.937 1871.104 1874.074 1874.11 1871.028 1867.946 1864.864 1861.748 1858.588 1855.428 1855.187 1856.014 1857.041 1858.069 1859.096 1857.45 1851.046 1844.722 1838.443 1832.165 1825.886 1819.608 1813.749 1809.238 1804.728 1800.217 1795.706 1791.195 1786.267 1781.038 1775.809 1770.481 1765.082 1759.683 1754.31 1748.942 1743.573 1737.871 1730.117 1722.363 1714.609 1706.855 1699.101 1690.094 1683.761 1677.377 1671.532 1666.129 1660.555 1655.057 1649.675 1644.276 1639.199 1634.363 1629.527 1624.691 1619.855 1615.019 1609.502 1602.211 1595.387 1589.625 1583.863 1578.101 1572.339 1566.711 1561.183 1555.656 1550.501 1546.306 1542.11 1537.915 1533.717 1527.893 1523.516 1519.139 1514.761 1510.384 1506.007 1502.347 1498.842 1495.337 1490.533 1485.176 1479.819 1474.462 1469.105 1463.748 1458.391 1452.403 1447.512 1443.34 1437.946 1432.551 1427.156 1421.761 1416.012 1409.395 1401.232 1395.063 1388.363 1382.194 1382.578 1379.909 1376.976 1374.338 1371.699 1369.061 1367.17 1364.828 1361.908 1358.988 1356.068 1353.33 1349.099 1345.513 1341.993 1337.765 1331.364 1326.727 1322.553 1318.38 1314.979 1312.791 1309.804 1306.468 1303.132 1299.663 1296.315 1292.656 1288.997 1285.338 1281.679 1278.02 1273.846 1269.641 1265.436 1261.231 1257.026 1252.945 1248.794 1242.965 1237.135 1231.306 1225.476 1220.278 1216.093 1211.773 1206.495 1201.218 1195.94 1190.662 1185.385 1180.107 1174.117 1168.079 1162.048 1156.017 1149.986 1143.954 1137.819 1131.147 1124.34 1117.533 1110.726 1103.919 1097.112 1092.236 1089.547 1086.858 1083.628 1080.112 1076.596 1073.08 1068.488 1065.882 1062.7 1058.074 1054.124 1050.343 1046.59 1046.382 1041.572 1036.761 1031.95 1027.139 1021.426 1016.058 1012.996 1010.212 1009.356 1008.5 1007.644 1006.975 1006.875 1003.557 999.9269 996.2968 992.6666 989.0364 984.4205 979.4407 977.1901 975.1687 973.1473 971.322 969.5673 967.8127 966.0823 964.7238 963.3652 962.0066 960.648 959.2894 957.9243 956.3969 954.8371 953.2774 951.7177 950.158 948.5982 945.1882 938.3633 931.5385 924.7136 917.8887 911.2962 905.0146 903.8934 903.7959 900.5718 894.2298 887.0027 879.7756 872.5485 867.3409 862.8574 858.3738 853.8903 849.4489 845.0892 841.334 838.484 835.634 832.7841 830.0234 830.9005 831.4328 831.4646 831.4963 831.5281 831.5599 831.2592 830.8925 830.4305 830.3206 832.017 833.7135 835.41 837.1064
1818 1818 1818 1819.986 1822.348 1824.71 1827.137 1829.571 1832.596 1832.91 1829.994 1827.077 1824.16 1821.244 1818.327 1815.41 1815.501 1816.209 1818.897 1825.063 1828.503 1833.042 1837.383 1841.087 1844.79 1848.494 1852.198 1855.901 1859.605 1863.309 1865.935 1868.727 1871.824 1874.921 1878.018 1881.115 1884.212 1886.407 1885.643 1884.88 1884.116 1884.211 1884.61 1885.01 1885.409 1885.633 1885.697 1885.76 1885.823 1885.887 1885.95 1886.014 1886.34 1886.638 1887.042 1887.447 1887.851 1888.256 1888.66 1889.064 1889.469 1888.902 1886.528 1884.154 1881.781 1879.256 1876.556 1873.856 1871.156 1868.455 1865.755 1867.323 1869.526 1871.703 1873.874 1876.015 1878.16 1880.426 1881.327 1878.502 1875.342 1872.181 1869.021 1865.861 1862.701 1862.459 1862.608 1862.757 1862.906 1863.054 1861.147 1854.869 1848.59 1842.312 1836.033 1829.755 1823.477 1817.646 1813.135 1808.624 1804.113 1799.168 1793.94 1788.711 1783.482 1778.254 1772.926 1767.526 1762.127 1756.728 1751.33 1745.961 1740.209 1732.455 1724.701 1716.948 1709.194 1701.455 1693.765 1686.722 1678.164 1673.531 1668.897 1664.264 1659.631 1655.174 1649.641 1644.586 1639.75 1634.914 1630.078 1625.242 1620.406 1614.75 1607.459 1600.168 1593.167 1587.405 1581.644 1575.882 1570.307 1564.78 1559.252 1553.724 1549.186 1544.99 1540.795 1535.282 1528.944 1524.161 1519.784 1515.407 1511.03 1506.918 1503.413 1499.908 1496.403 1492.644 1487.287 1481.929 1476.572 1471.215 1465.858 1459.232 1452.136 1447.427 1442.032 1436.638 1431.243 1425.848 1420.25 1414.301 1407.972 1400.245 1391.95 1388.525 1392.39 1388.445 1384.055 1380.203 1377.313 1374.674 1372.57 1370.924 1369.138 1366.218 1363.356 1360.705 1358.055 1353.72 1349.125 1345.058 1340.761 1335.719 1331.546 1327.372 1323.199 1319.025 1315.936 1312.576 1309.045 1305.514 1302.037 1299.052 1295.986 1292.327 1288.668 1285.009 1281.35 1277.171 1272.966 1268.76 1264.555 1260.35 1256.145 1251.971 1246.142 1240.312 1234.483 1228.653 1222.824 1217.985 1213.642 1208.364 1203.087 1197.809 1192.532 1187.254 1181.896 1176.048 1169.857 1163.666 1157.474 1151.283 1145.092 1138.901 1132.307 1125.665 1119.024 1112.382 1105.74 1098.944 1094.109 1090.758 1087.242 1083.726 1080.21 1076.694 1073.179 1068.51 1065.726 1062.313 1059.334 1054.849 1050.891 1050.623 1049.247 1044.436 1039.589 1033.519 1027.449 1021.595 1016.519 1014.222 1013.366 1012.51 1011.654 1010.798 1010.545 1010.446 1007.085 1003.455 999.825 996.1948 991.7307 986.751 981.7712 979.5781 977.5566 975.5352 973.5138 971.5521 969.7975 968.0705 966.7119 965.3533 963.9948 962.5439 961.014 959.4841 958.0151 956.5057 954.946 953.3862 951.8265 950.2668 946.7628 939.9379 933.113 926.2881 919.5276 913.2461 906.9645 905.9791 905.8817 903.2975 896.0704 888.8434 881.6163 874.3892 869.2146 864.7311 860.2476 855.8264 851.4667 847.107 843.3682 840.5182 837.6683 834.8184 831.892 830.3449 830.8225 830.8543 830.886 830.9178 830.9496 830.9814 830.9568 830.4305 830.3311 832.1492 833.8544 835.5509 837.2474
1818 1818 1818 1819.243 1821.702 1824.19 1827.308 1830.928 1834.547 1835.16 1834.37 1832.042 1829.126 1826.209 1823.292 1820.376 1820.509 1821.217 1827.749 1828.379 1830.48 1834.909 1839.235 1842.938 1846.642 1850.346 1854.05 1857.761 1861.575 1865.389 1869.493 1874.041 1878.589 1882.069 1885.166 1888.263 1891.36 1893.474 1892.711 1892.258 1892.657 1893.057 1893.456 1893.856 1894.256 1894.475 1894.538 1894.601 1894.665 1894.728 1894.792 1894.479 1893.8 1894.302 1894.809 1895.316 1895.823 1896.329 1896.754 1897.158 1897.563 1896.936 1894.548 1891.847 1889.147 1886.443 1883.736 1881.03 1878.323 1875.605 1872.842 1874.278 1876.274 1878.809 1881.773 1883.538 1885.303 1887.067 1887.896 1885.149 1882.402 1879.454 1876.294 1873.134 1869.974 1869.732 1869.881 1870.03 1870.178 1868.634 1865.178 1858.85 1852.523 1846.195 1839.902 1833.624 1827.345 1821.543 1817.032 1812.07 1806.841 1801.613 1796.384 1791.155 1785.927 1780.698 1775.37 1769.971 1764.572 1759.172 1753.773 1748.374 1742.554 1734.864 1727.174 1719.484 1711.794 1704.104 1695.832 1689.943 1684.816 1680.123 1675.49 1670.856 1666.223 1661.896 1657.421 1651.59 1645.759 1640.301 1635.464 1630.628 1625.792 1619.998 1612.707 1605.416 1598.125 1590.948 1585.186 1579.431 1573.903 1568.376 1562.848 1557.32 1552.066 1547.87 1543.186 1536.847 1530.509 1524.807 1520.43 1516.052 1511.675 1507.985 1504.48 1500.975 1497.47 1493.965 1489.397 1484.04 1477.414 1470.318 1463.223 1456.127 1449.031 1446.064 1440.724 1435.33 1429.935 1424.488 1418.539 1412.59 1406.477 1399.127 1395.293 1393.995 1395.69 1391.548 1387.158 1383.589 1380.287 1377.97 1376.324 1374.679 1373.033 1370.732 1368.081 1365.43 1362.779 1358.341 1353.746 1349.151 1344.463 1340.211 1335.958 1331.706 1327.454 1323.202 1318.706 1314.943 1311.412 1307.881 1304.411 1301.426 1298.441 1295.456 1291.998 1288.339 1284.681 1280.495 1276.29 1272.085 1267.88 1263.675 1259.47 1255.149 1249.319 1243.49 1237.66 1231.83 1226.001 1220.171 1215.511 1210.234 1204.956 1199.585 1194.166 1188.747 1183.328 1177.418 1170.938 1164.747 1158.556 1152.365 1146.173 1139.982 1133.384 1126.742 1120.1 1113.458 1106.817 1100.205 1094.832 1090.809 1087.34 1083.824 1080.309 1076.793 1073.277 1068.532 1065.252 1062.425 1058.872 1056.348 1055.439 1054.53 1051.974 1046.898 1041.823 1036.747 1031.672 1026.596 1021.521 1017.376 1016.52 1015.664 1014.808 1014.215 1014.115 1014.016 1010.614 1006.983 1003.353 999.0409 994.0612 989.0815 984.1017 981.966 979.9446 977.9232 975.9017 973.8802 971.8588 970.0587 968.6935 967.1636 965.6337 964.1038 962.574 961.0441 959.576 958.1487 956.6146 955.0548 953.4951 951.9354 948.3373 941.5125 934.6876 927.8627 921.4775 915.1959 908.9144 908.0649 907.4033 904.8643 897.8207 890.684 883.4569 876.2298 871.0883 866.6048 862.2039 857.8442 853.4845 849.1249 845.4025 842.5525 839.7025 836.8216 833.8104 830.7062 830.2122 830.244 830.3833 830.525 830.6704 830.7935 830.8056 830.4117 830.3723 832.1492 833.9674 835.6918 837.3883
1818 1818 1818 1818.82 1822.021 1825.64 1829.26 1832.879 1836.498 1837.111 1836.322 1835.533 1834.091 1831.174 1828.258 1825.341 1825.517 1829.625 1831.097 1832.658 1834.631 1837.046 1841.087 1844.79 1848.55 1852.364 1856.177 1859.991 1863.805 1867.619 1871.735 1876.283 1880.831 1885.379 1889.927 1894.475 1898.508 1900.542 1900.705 1901.104 1901.504 1901.903 1902.303 1902.702 1903.102 1903.316 1903.38 1903.443 1903.506 1903.231 1902.552 1901.873 1901.212 1901.719 1902.226 1902.733 1903.239 1903.746 1904.253 1904.76 1905.065 1904.197 1901.326 1900.001 1896.38 1893.58 1890.781 1887.981 1885.182 1882.382 1879.583 1882.576 1884.885 1886.65 1888.415 1890.179 1891.944 1893.709 1894.464 1891.718 1888.971 1886.224 1883.478 1880.406 1877.246 1877.005 1877.154 1875.891 1874.347 1872.803 1869.251 1862.924 1856.596 1850.269 1843.941 1837.614 1831.286 1825.407 1820.266 1814.958 1809.651 1804.344 1799.037 1793.73 1788.423 1783.143 1777.681 1771.997 1766.313 1760.629 1754.945 1749.262 1742.148 1736.171 1729.823 1722.133 1714.443 1707.84 1698.076 1696.247 1691.474 1686.715 1682.082 1677.448 1672.815 1668.619 1664.543 1659.37 1653.54 1647.709 1641.878 1636.047 1631.179 1625.245 1617.954 1610.663 1603.372 1596.081 1588.79 1583.027 1577.5 1571.972 1566.444 1560.916 1555.389 1550.75 1544.751 1538.412 1532.074 1525.735 1521.075 1516.698 1512.557 1509.052 1505.546 1502.041 1498.536 1494.145 1488.142 1481.404 1474.309 1467.213 1460.118 1453.022 1445.927 1442.638 1439.417 1434.022 1428.627 1422.776 1416.827 1410.878 1404.929 1403.878 1401.622 1400.023 1398.643 1394.599 1390.343 1386.974 1383.931 1382.163 1380.698 1379.186 1377.674 1375.369 1372.776 1370.154 1367.503 1362.962 1358.193 1353.315 1348.437 1343.824 1339.443 1335.191 1330.939 1326.687 1321.934 1317.31 1313.779 1310.248 1306.784 1303.8 1300.815 1297.83 1294.845 1291.67 1288.011 1283.82 1279.615 1275.41 1271.204 1266.998 1262.792 1258.43 1252.588 1246.747 1240.905 1235.063 1229.222 1223.38 1217.275 1211.855 1206.436 1201.017 1195.598 1190.178 1184.759 1178.838 1172.176 1165.828 1159.637 1153.446 1147.255 1141.063 1134.46 1127.819 1121.177 1114.535 1107.893 1102.328 1096.236 1092.234 1087.119 1083.658 1080.407 1076.891 1073.375 1068.554 1064.658 1062.255 1060.046 1058.952 1058.236 1057.521 1055.776 1051.899 1046.824 1041.748 1036.673 1031.597 1026.521 1021.966 1019.674 1018.818 1017.962 1017.785 1017.686 1017.586 1014.142 1010.512 1006.351 1001.371 996.3917 991.4119 986.4323 984.3539 982.3325 980.311 978.2896 976.2682 974.2468 972.2311 970.2534 968.7235 967.1936 965.6638 964.1339 962.604 961.1368 959.7095 958.2823 956.7234 955.1637 953.6039 949.9119 943.087 936.2621 929.7089 923.4273 917.1458 910.8643 910.1507 908.7198 905.6243 899.3348 892.3425 885.2975 878.0704 872.962 868.5814 864.2217 859.8621 855.5024 851.1427 847.4367 844.5867 841.7368 838.7772 835.6729 832.501 830.0372 830.1836 830.3281 830.4633 830.5781 830.6559 830.619 830.3536 830.4567 832.2307 834.0048 835.7856 837.5292
1818 1818 1818 1819.076 1823.266 1827.373 1831.211 1834.83 1838.45 1839.062 1838.273 1837.484 1836.695 1835.906 1833.223 1830.306 1830.709 1833.815 1835.621 1838.211 1840.479 1841.969 1843.882 1846.966 1850.78 1854.594 1858.408 1862.221 1866.035 1869.849 1873.978 1878.526 1883.074 1887.622 1892.17 1896.718 1902.528 1907.728 1908.667 1909.606 1910.35 1910.75 1911.149 1911.549 1911.948 1912.158 1912.221 1911.984 1911.305 1910.626 1909.947 1909.268 1908.629 1909.136 1909.643 1910.149 1910.656 1911.163 1911.408 1911.418 1911.429 1910.527 1908.283 1906.039 1902.668 1899.651 1897.607 1896.047 1895.545 1890.653 1888.207 1889.756 1891.527 1893.291 1895.056 1896.821 1898.585 1900.35 1901.033 1898.286 1895.539 1892.793 1890.046 1887.3 1884.519 1883.149 1881.604 1880.06 1878.516 1876.972 1873.325 1866.997 1860.67 1854.342 1848.015 1841.728 1835.447 1829.615 1824.787 1819.959 1815.131 1810.201 1804.894 1799.586 1794.279 1788.972 1779.416 1771.553 1766.937 1761.253 1755.569 1749.885 1740.306 1736.422 1729.536 1723.658 1717.092 1711.953 1705.164 1700.484 1698.132 1693.359 1688.674 1684.041 1679.416 1675.341 1671.265 1667.151 1661.32 1655.489 1649.658 1643.828 1637.997 1630.237 1622.936 1615.634 1608.332 1601.03 1593.729 1585.742 1580.276 1574.81 1569.343 1563.877 1558.411 1552.659 1546.316 1539.977 1533.639 1527.3 1521.721 1517.344 1513.623 1510.118 1506.613 1501.57 1495.751 1489.932 1483.886 1477.491 1471.096 1464.108 1457.013 1449.917 1442.822 1439.213 1438.109 1432.714 1427.014 1421.065 1415.116 1409.167 1406.428 1413.693 1411.738 1406.487 1401.756 1397.597 1393.876 1391.147 1388.418 1386.388 1385.05 1383.711 1382.32 1379.971 1377.355 1374.64 1371.935 1367.13 1362.252 1357.374 1352.496 1347.817 1343.204 1338.675 1334.423 1330.089 1325.162 1320.236 1316.146 1312.615 1309.158 1306.173 1303.188 1300.204 1297.219 1294.234 1291.231 1287.143 1282.937 1278.731 1274.525 1270.318 1266.112 1261.726 1255.885 1250.043 1244.202 1238.36 1232.518 1226.041 1219.202 1213.287 1207.867 1202.448 1197.029 1191.609 1186.19 1180.257 1173.595 1166.933 1160.719 1154.527 1148.336 1142.145 1135.537 1128.895 1122.253 1115.612 1109.773 1104.451 1097.787 1093.52 1089.67 1084.336 1079.236 1076.507 1073.473 1068.576 1065.476 1064.429 1063.548 1062.085 1061.369 1060.653 1058.872 1055.559 1051.825 1046.749 1041.674 1036.598 1031.522 1026.957 1022.828 1021.972 1021.455 1021.355 1021.256 1021.156 1017.67 1013.661 1008.682 1003.702 998.7222 993.7424 988.7633 986.7418 984.7204 982.699 980.6776 978.6561 976.7314 974.7288 971.9973 970.2834 968.7535 967.2236 965.6938 964.1639 962.6977 961.2704 959.8431 958.392 956.8323 955.2725 951.4865 944.6616 937.9403 931.6588 925.3772 919.0956 912.8141 912.2365 909.619 906.1585 900.2779 893.3549 886.4318 879.6008 874.9589 870.5992 866.2396 861.8799 857.5202 853.1605 849.4709 846.621 843.723 840.6396 837.4422 833.906 830.3505 830.1258 830.2524 830.3629 830.4406 830.4762 830.4323 830.2044 830.6854 832.4457 834.2062 835.9874 837.6792
1818 1818 1818 1818.761 1822.976 1827.197 1831.417 1835.734 1840.173 1841.007 1840.221 1839.435 1838.646 1837.857 1837.068 1835.272 1836.666 1838.83 1840.804 1842.873 1844.936 1846.935 1848.206 1851.027 1853.848 1856.824 1860.638 1864.452 1868.266 1872.079 1876.22 1880.768 1885.316 1889.864 1895.316 1902.191 1909.066 1914.267 1915.206 1916.145 1917.084 1918.023 1918.962 1919.901 1920.795 1920.737 1920.058 1919.379 1918.7 1918.021 1917.342 1916.663 1916.046 1916.553 1917.059 1917.566 1917.75 1917.761 1917.771 1917.782 1917.792 1916.857 1914.612 1912.368 1910.124 1907.88 1904.272 1900.17 1897.976 1895.932 1894.571 1896.354 1898.136 1899.919 1901.697 1903.462 1905.227 1906.991 1907.601 1904.855 1902.108 1899.361 1896.59 1893.668 1890.747 1888.411 1886.139 1884.229 1882.685 1881.141 1877.398 1871.071 1864.745 1858.465 1852.184 1845.903 1839.622 1833.824 1828.996 1824.167 1819.339 1814.511 1809.683 1804.855 1800.027 1794.829 1784.976 1772.868 1764.227 1760.476 1756.192 1750.509 1738.464 1736.371 1730.025 1725.928 1723.368 1718.893 1712.369 1707.69 1703.01 1700.017 1695.266 1690.633 1686.138 1682.063 1677.987 1673.911 1669.1 1663.27 1657.439 1651.608 1643.594 1635.239 1627.529 1620.227 1612.925 1605.623 1598.322 1589.767 1581.997 1576.531 1571.065 1565.599 1560.132 1554.249 1547.901 1541.554 1535.207 1528.865 1522.526 1518.195 1514.69 1508.996 1503.177 1497.358 1491.538 1485.719 1479.63 1473.235 1466.84 1460.445 1453.908 1446.812 1439.717 1435.787 1435.535 1431.251 1426.108 1423.505 1420.455 1417.405 1418.101 1417.984 1414.875 1409.623 1405.092 1400.844 1397.749 1395.634 1392.904 1390.613 1389.275 1387.937 1386.783 1383.779 1381.064 1378.349 1375.675 1371.261 1366.311 1361.433 1356.555 1351.81 1347.197 1342.585 1337.972 1333.317 1328.391 1323.464 1318.538 1314.982 1311.532 1308.547 1305.562 1302.578 1299.593 1296.498 1293.347 1290.028 1286.258 1282.052 1277.845 1273.639 1269.433 1265.023 1259.181 1253.34 1247.498 1241.656 1235.005 1227.984 1221.156 1215.066 1209.299 1203.879 1198.46 1193.041 1187.622 1181.677 1175.015 1168.353 1161.8 1155.609 1149.417 1143.226 1136.614 1129.972 1123.33 1117.218 1111.896 1106.574 1099.88 1095.236 1090.304 1087.058 1081.765 1076.316 1072.001 1072.241 1069.719 1067.743 1066.7 1065.608 1064.502 1063.786 1061.967 1058.655 1055.343 1051.75 1046.675 1041.599 1036.524 1031.949 1027.565 1025.127 1025.025 1024.926 1024.826 1024.727 1020.972 1015.992 1011.012 1006.032 1001.053 996.0729 991.1512 989.1298 987.1083 985.0869 983.0849 981.1609 979.2371 977.2266 974.4951 971.8433 970.3134 968.7836 967.2537 965.7238 964.2585 962.8313 961.404 959.9767 958.5009 956.9411 953.061 946.2361 939.8901 933.6086 927.327 921.0455 914.7639 913.5658 910.174 906.2524 900.7248 893.9235 887.2189 881.8224 877.245 872.6675 868.2574 863.8977 859.538 855.1783 851.5052 848.6525 845.6064 842.3542 838.7682 835.2574 831.8716 830.0414 830.1475 830.2253 830.303 830.2935 830.2456 830.0298 831.139 832.813 834.4869 836.1609 837.8348
1818 1818 1818 1819.781 1824.483 1828.922 1833.362 1837.801 1842.241 1842.93 1842.144 1841.357 1840.571 1839.785 1839.504 1840.598 1842.016 1843.471 1844.926 1846.381 1848.15 1850.322 1852.529 1855.35 1858.171 1860.992 1863.813 1866.682 1870.496 1874.31 1878.463 1883.011 1888.104 1894.979 1901.854 1908.729 1915.604 1920.866 1921.862 1922.858 1923.854 1924.85 1925.846 1926.842 1927.838 1927.874 1927.262 1926.651 1926.039 1925.416 1924.737 1924.058 1923.463 1923.969 1924.093 1924.104 1924.114 1924.125 1924.135 1924.146 1924.156 1923.186 1920.942 1918.698 1916.454 1914.209 1911.965 1909.721 1905.876 1901.774 1899.563 1901.785 1904.007 1906.229 1908.299 1910.082 1911.865 1913.633 1914.17 1911.423 1908.554 1905.632 1902.711 1899.789 1896.868 1894.548 1892.275 1890.002 1887.73 1885.457 1881.482 1875.201 1868.921 1862.64 1856.359 1850.079 1843.798 1838.032 1833.204 1828.376 1823.548 1818.72 1813.892 1807.769 1801.339 1794.786 1786.92 1778.428 1766.32 1756.902 1753.15 1749.398 1737.557 1738.725 1735.442 1732.606 1729.71 1725.833 1719.574 1714.895 1710.215 1705.536 1701.902 1697.225 1692.861 1688.785 1684.709 1680.634 1676.558 1671.05 1665.219 1657.205 1648.85 1640.495 1632.139 1624.82 1617.518 1610.216 1602.568 1593.874 1585.181 1578.253 1572.786 1567.32 1561.854 1555.839 1549.491 1543.144 1536.797 1530.449 1524.102 1517.034 1510.603 1504.783 1498.964 1493.145 1487.326 1481.506 1475.373 1468.979 1462.584 1456.189 1449.794 1443.4 1436.612 1432.361 1431.556 1430.235 1429.604 1426.494 1423.383 1420.6 1419.186 1419.26 1418.011 1412.852 1408.45 1404.091 1401.179 1399.365 1397.391 1394.838 1393.5 1392.375 1391.326 1387.943 1384.773 1382.057 1379.414 1375.438 1370.479 1365.521 1360.613 1355.803 1351.19 1346.576 1341.591 1336.606 1331.621 1326.692 1321.766 1317.349 1313.905 1310.921 1307.936 1304.916 1301.765 1298.614 1295.459 1292.141 1288.823 1285.372 1281.166 1276.959 1272.753 1268.319 1262.478 1256.636 1250.794 1243.969 1236.949 1229.928 1223.11 1217.02 1210.93 1205.311 1199.891 1194.472 1189.053 1183.097 1176.435 1169.773 1163.111 1156.69 1150.499 1144.307 1137.69 1131.048 1124.663 1119.341 1114.018 1108.696 1101.972 1096.236 1092.23 1087.277 1084.353 1079.622 1076.116 1076.358 1073.996 1072.02 1070.045 1068.925 1067.634 1066.918 1065.063 1061.75 1058.438 1055.126 1051.676 1046.6 1041.525 1036.941 1032.557 1028.544 1028.475 1028.406 1028.338 1028.133 1023.302 1018.322 1013.343 1008.363 1003.383 998.4034 993.5391 991.5177 989.4963 987.5145 985.5905 983.6666 981.7426 979.7243 976.9928 974.2614 971.8734 970.3434 968.8136 967.2837 965.8194 964.3922 962.9648 961.5375 960.1103 958.6097 954.6356 948.1216 941.84 935.5585 929.2769 922.9954 916.7138 914.1312 910.7216 907.1561 901.2542 894.845 888.9628 884.2111 879.6337 875.0562 870.4787 865.9155 861.5558 857.1962 853.5394 850.5732 847.186 843.69 840.3041 836.9183 833.5324 830.9431 830.0099 830.0877 830.1337 830.1109 830.059 830.4911 831.3582 832.9687 834.6426 836.3166 837.9905
1818 1818 1818 1821.579 1825.94 1830.708 1835.43 1839.869 1844.308 1844.852 1844.066 1843.28 1843.712 1844.806 1845.9 1846.995 1848.424 1849.879 1851.334 1852.788 1853.9 1854.879 1856.852 1859.673 1862.494 1865.315 1868.136 1870.957 1873.778 1876.599 1880.893 1887.641 1894.059 1900.477 1906.896 1913.314 1919.732 1925.13 1928.196 1929.944 1930.94 1931.936 1932.932 1933.928 1934.924 1934.932 1934.321 1933.709 1933.097 1932.486 1931.874 1931.262 1931.562 1930.66 1930.457 1930.467 1930.478 1930.488 1930.499 1930.51 1930.52 1929.516 1927.272 1925.027 1922.783 1920.539 1918.295 1916.051 1913.806 1911.562 1909.87 1911.352 1912.833 1914.315 1915.796 1917.278 1918.759 1920.707 1921.118 1917.668 1914.675 1911.753 1908.832 1905.91 1902.989 1900.684 1898.411 1896.139 1893.469 1890.619 1886.076 1879.715 1873.354 1866.993 1860.632 1854.271 1847.973 1842.24 1836.793 1830.362 1823.932 1817.502 1811.071 1804.641 1798.276 1789.231 1781.365 1775.079 1766.4 1757.901 1749.577 1741.927 1745.122 1745.436 1742.191 1738.92 1735.821 1732.773 1726.779 1722.099 1717.42 1712.741 1708.062 1703.817 1699.583 1695.507 1691.431 1687.356 1683.28 1678.83 1670.816 1662.461 1654.106 1645.75 1637.395 1629.413 1622.111 1614.809 1606.675 1597.981 1589.288 1580.594 1574.508 1569.042 1563.575 1557.429 1551.081 1544.734 1538.387 1532.002 1525.564 1518.619 1511.035 1503.451 1495.867 1488.932 1483.113 1477.293 1471.117 1464.722 1458.328 1451.933 1445.538 1439.408 1434.039 1429.13 1426.16 1424.485 1423.772 1423.497 1423.222 1421.742 1420.332 1420.535 1420.738 1416.21 1411.808 1407.405 1404.609 1402.795 1400.982 1399.148 1397.965 1396.917 1395.868 1392.301 1388.688 1385.766 1383.154 1379.615 1374.656 1369.698 1364.739 1359.796 1354.904 1349.919 1344.934 1339.949 1334.964 1329.98 1324.995 1320.068 1316.279 1313.294 1310.183 1307.032 1303.881 1300.73 1297.572 1294.254 1290.936 1287.617 1284.299 1280.28 1276.074 1271.616 1265.774 1259.932 1252.933 1245.913 1238.892 1231.872 1225.064 1218.974 1212.884 1206.793 1201.323 1195.903 1190.484 1184.517 1177.855 1171.193 1164.531 1157.869 1151.58 1145.389 1138.767 1132.125 1126.785 1121.463 1116.141 1110.819 1104.065 1097.502 1094.236 1088.983 1086.192 1084.766 1081.019 1080.476 1078.273 1076.297 1074.322 1072.346 1071.1 1070.051 1068.158 1064.846 1061.534 1058.221 1054.909 1051.597 1046.526 1041.933 1037.823 1033.897 1031.713 1031.645 1030.903 1029.423 1024.994 1020.296 1015.598 1010.693 1005.714 1000.734 995.9271 993.9056 991.944 990.02 988.0961 986.1722 984.2482 982.222 979.4906 976.7591 974.0276 971.9034 970.3735 968.8436 967.3802 965.953 964.5257 963.0984 961.6711 960.2438 956.353 950.0714 943.7899 937.5043 931.1318 924.7592 918.3866 914.8206 911.0893 907.4479 902.4711 896.6167 891.1773 886.5998 882.0223 877.4448 872.8674 868.2899 863.7124 859.214 855.5399 852.1226 848.7368 845.3508 841.965 838.5791 835.2547 832.8138 831.377 830.7274 830.1599 830.2078 830.8256 831.4466 832.1385 833.1243 834.7983 836.4722 838.1462
1818 1818.066 1822.299 1826.234 1830.123 1834.011 1837.899 1841.787 1846.376 1846.826 1847.92 1849.014 1850.109 1851.203 1852.297 1853.391 1854.832 1856.19 1857.083 1856.78 1856.478 1856.176 1861.693 1864.006 1866.32 1868.978 1871.752 1874.527 1877.333 1880.215 1884.975 1891.635 1898.068 1904.486 1910.904 1917.322 1923.74 1929.071 1932.136 1935.202 1938.027 1939.023 1940.019 1941.015 1942.01 1941.991 1941.379 1940.767 1940.156 1939.544 1939.671 1940.465 1941.064 1940.162 1939.26 1938.359 1937.457 1936.852 1936.863 1936.873 1936.884 1935.846 1933.601 1931.357 1929.113 1926.869 1924.722 1922.873 1921.024 1919.174 1915.893 1917.374 1918.856 1920.407 1922.649 1924.891 1927.133 1929.375 1929.196 1925.746 1922.297 1918.847 1915.397 1912.031 1909.11 1906.712 1903.862 1901.012 1898.162 1895.313 1890.77 1884.409 1878.048 1871.687 1865.326 1858.965 1851.634 1843.34 1833.856 1827.234 1820.803 1814.373 1807.943 1801.516 1794.931 1785.615 1781.895 1775.931 1765.894 1756.913 1753.13 1750.879 1753.512 1751.997 1748.753 1745.508 1742.264 1739.228 1733.984 1729.304 1724.625 1719.946 1715.035 1709.808 1705.26 1700.933 1696.606 1692.279 1687.952 1682.831 1675.21 1667.588 1659.361 1651.006 1642.651 1634.296 1626.704 1619.403 1610.782 1602.088 1593.395 1584.701 1576.229 1570.763 1565.297 1559.019 1552.671 1546.324 1539.901 1533.463 1527.025 1520.204 1512.62 1505.036 1497.452 1489.868 1482.285 1474.701 1468.804 1463.436 1458.067 1452.698 1447.329 1441.96 1436.592 1431.817 1427.767 1422.887 1419.233 1421.766 1424.313 1418.842 1421.171 1422.315 1422.203 1420.171 1416.401 1412.632 1409.787 1408.029 1406.29 1404.53 1402.508 1401.459 1400.273 1396.659 1393.046 1389.475 1385.244 1380.756 1376.253 1371.301 1366.35 1362.295 1357.951 1353 1348.049 1343.098 1338.147 1333.196 1328.245 1323.294 1318.601 1315.45 1312.299 1309.148 1305.997 1302.846 1299.684 1296.366 1293.048 1289.73 1286.412 1283.094 1279.394 1274.912 1268.918 1261.898 1254.877 1247.856 1240.836 1233.815 1227.018 1220.928 1214.838 1208.747 1202.754 1197.335 1191.915 1185.936 1179.275 1172.613 1165.951 1159.289 1152.661 1146.47 1139.844 1134.23 1128.908 1123.586 1118.264 1112.942 1106.158 1099.037 1095.315 1093.623 1090.726 1088.439 1086.233 1084.594 1082.55 1080.574 1078.599 1076.623 1074.647 1073.185 1071.254 1067.942 1064.629 1061.317 1058.005 1054.693 1051.38 1047.148 1043.222 1039.296 1035.369 1033.672 1032.192 1030.712 1026.479 1021.781 1017.083 1012.385 1007.688 1002.99 998.315 996.3735 994.4496 992.5256 990.6017 988.6777 986.7538 984.7198 981.9883 979.2568 976.5253 973.7938 971.9334 970.4035 968.9411 967.5139 966.0865 964.6593 963.232 961.2567 957.4994 951.2133 944.8408 938.4681 932.0956 925.723 919.3505 915.7457 912.2287 908.8868 904.2707 898.3176 893.566 888.9885 884.411 879.8335 875.256 870.6786 865.9794 860.9918 857.2252 853.7834 850.3976 847.0117 843.6258 840.2399 837.0007 835.0901 834.2048 832.7328 831.4852 831.4609 832.0325 832.6147 833.1281 833.7859 834.9539 836.6279 838.3018
1820.345 1822.797 1827.002 1830.89 1834.778 1838.666 1842.554 1846.062 1847.674 1849.172 1850.64 1852.109 1853.578 1855.046 1856.515 1858.774 1859.993 1859.912 1859.832 1859.751 1859.67 1859.589 1862.214 1866.64 1869.414 1872.189 1875.027 1877.914 1880.793 1883.672 1888.509 1895.168 1901.827 1908.486 1914.913 1921.331 1927.749 1933.011 1936.076 1939.142 1942.208 1945.274 1947.105 1948.101 1949.097 1949.049 1948.438 1947.826 1947.626 1948.42 1949.214 1950.008 1950.567 1949.665 1948.763 1947.861 1946.959 1946.057 1945.155 1944.254 1943.352 1942.175 1940.297 1938.174 1936.051 1933.927 1931.804 1929.68 1927.557 1925.434 1922.349 1924.59 1926.832 1929.074 1931.316 1933.558 1935.8 1938.042 1937.274 1933.825 1930.375 1926.925 1923.476 1919.778 1913.956 1911.332 1908.556 1905.706 1902.856 1900.007 1895.464 1889.103 1882.742 1876.381 1869.201 1861.692 1854.182 1845.85 1836.366 1826.881 1817.675 1811.245 1804.814 1798.79 1790.73 1784.459 1779.189 1778.842 1777.137 1769.52 1763.498 1760.738 1761.561 1758.559 1755.315 1752.07 1748.825 1745.362 1740.159 1734.932 1729.704 1724.477 1719.25 1714.037 1709.125 1704.742 1700.415 1696.088 1691.761 1685.971 1678.349 1670.727 1663.106 1655.484 1647.863 1639.551 1631.297 1623.583 1614.889 1606.195 1597.501 1588.808 1580.114 1572.484 1566.956 1560.609 1554.238 1547.8 1541.361 1534.923 1528.485 1521.789 1514.205 1506.621 1499.037 1491.454 1483.87 1476.656 1471.21 1466.216 1460.62 1455.251 1449.882 1444.513 1439.145 1434.285 1430.755 1426.405 1423.439 1423.643 1424.974 1424.357 1423.759 1424.715 1425.546 1424.255 1422.441 1418.672 1415.446 1413.63 1411.862 1410.055 1408.016 1406.002 1404.631 1401.017 1397.62 1393.738 1388.18 1382.993 1377.806 1372.619 1368.217 1364.6 1360.916 1355.965 1351.014 1346.063 1341.113 1336.162 1331.211 1326.26 1321.199 1317.566 1314.415 1311.264 1308.113 1304.961 1301.797 1298.479 1295.161 1291.843 1288.525 1285.206 1281.888 1277.861 1270.862 1263.841 1256.821 1249.8 1242.779 1235.759 1228.972 1222.882 1216.792 1210.701 1204.611 1198.766 1193.347 1187.356 1180.694 1174.032 1167.37 1160.709 1154.047 1147.552 1141.675 1136.353 1131.031 1125.709 1120.387 1115.065 1108.25 1100.768 1098.8 1096.832 1094.864 1093.128 1090.708 1088.802 1086.827 1084.851 1082.876 1080.9 1078.924 1076.949 1074.355 1071.059 1067.763 1064.467 1061.171 1057.875 1054.579 1050 1045.86 1041.766 1037.673 1034.962 1033.482 1032.002 1027.965 1023.267 1018.569 1013.871 1009.173 1004.475 1000.492 998.8463 996.9551 995.0312 993.1073 991.1833 989.2594 987.2176 984.4861 981.7546 979.0231 976.2916 973.5601 971.9634 970.502 969.0747 967.6474 965.759 963.615 961.4709 957.6882 952.1772 945.8046 939.432 933.0594 926.6869 920.3143 916.7096 913.1554 909.6012 905.9716 900.5321 895.9547 891.3771 886.7764 881.7888 876.8011 871.8135 866.8848 862.8234 859.0669 855.6158 852.1647 848.7136 845.2866 841.9008 838.8032 837.5918 836.1198 834.6478 833.1758 832.7142 833.2394 833.7829 834.2961 834.8094 835.4333 836.7835 838.4575
1826.474 1827.529 1831.657 1835.545 1839.433 1842.874 1844.486 1846.099 1847.712 1849.206 1850.675 1852.143 1853.612 1855.492 1858.6 1861.703 1863.498 1865.293 1867.088 1867.084 1867.003 1866.922 1869.547 1869.851 1872.722 1875.613 1878.492 1881.372 1884.251 1887.13 1892.042 1898.701 1905.36 1912.02 1918.679 1925.338 1931.758 1936.951 1940.016 1943.082 1946.148 1949.214 1952.279 1955.187 1956.183 1956.108 1955.581 1956.375 1957.169 1957.963 1958.757 1959.551 1960.069 1959.167 1958.265 1957.363 1956.461 1955.602 1954.743 1953.884 1953.025 1951.054 1947.992 1944.93 1942.248 1939.072 1935.813 1933.779 1931.749 1929.718 1929.612 1932.588 1935.5 1937.742 1939.984 1942.226 1944.468 1946.71 1945.353 1941.903 1938.453 1935.004 1929.662 1923.608 1918.225 1915.658 1912.989 1910.319 1907.55 1904.701 1900.158 1893.797 1886.768 1879.259 1871.749 1864.24 1856.73 1848.36 1838.876 1829.391 1819.907 1810.422 1803.429 1799.951 1797.343 1800.873 1791.307 1789.059 1784.817 1780.141 1776.001 1770.128 1768.365 1765.121 1761.548 1757.839 1754.131 1750.148 1744.374 1739.147 1733.92 1728.692 1723.465 1718.293 1713.38 1708.55 1704.223 1699.896 1695.57 1689.11 1681.488 1673.867 1666.245 1658.624 1651.002 1643.38 1635.762 1627.383 1618.876 1610.302 1601.608 1592.915 1584.221 1575.527 1568.546 1562.136 1555.698 1549.26 1542.822 1536.384 1529.946 1523.374 1515.791 1508.207 1500.623 1493.039 1485.731 1478.704 1473.14 1468.634 1463.705 1458.071 1452.437 1447.066 1441.697 1436.754 1433.223 1429.692 1427.75 1427.381 1426.019 1424.583 1424.586 1426.592 1428.235 1427.286 1425.661 1424.069 1421.105 1419.289 1417.472 1415.579 1413.539 1411.496 1409.141 1405.856 1402.571 1398.016 1392.068 1386.88 1381.693 1376.735 1371.393 1366.906 1363.289 1358.931 1353.98 1349.029 1344.078 1339.127 1334.176 1329.081 1323.852 1320.155 1316.531 1313.38 1310.228 1307.077 1303.909 1300.591 1297.273 1293.955 1290.637 1287.319 1282.741 1277.376 1271.341 1265.306 1258.764 1251.744 1244.723 1237.702 1230.926 1224.836 1218.746 1212.655 1206.565 1200.475 1194.778 1188.776 1182.114 1175.452 1168.79 1162.128 1155.642 1149.124 1144.233 1137.903 1132.566 1127.428 1122.29 1117.151 1108.917 1106.622 1104.335 1102.049 1099.762 1097.476 1095.19 1092.631 1090.51 1088.429 1086.348 1084.266 1082.185 1080.104 1077.537 1074.294 1070.998 1067.702 1064.406 1061.11 1057.814 1053.217 1048.089 1043.996 1039.903 1036.211 1034.772 1033.292 1029.45 1024.752 1020.054 1015.356 1010.658 1006.584 1002.572 1000.926 999.2798 997.5368 995.6129 993.6889 991.765 989.7153 986.9838 984.2523 981.5208 978.7894 976.0579 973.5233 972.0629 970.2613 968.1173 965.9733 963.8293 961.6852 957.877 952.4226 946.7684 940.3959 934.0233 927.6508 921.2782 917.6735 914.1193 910.565 907.3362 902.5858 897.5982 892.6105 887.6229 882.6353 877.6477 872.7807 868.7194 864.658 860.9087 857.4575 854.0064 850.5553 847.1042 843.6531 841.1062 839.5068 838.0349 836.5629 835.0909 834.0153 834.4377 834.951 835.4643 835.9776 836.4908 837.0807 838.6131
1832.543 1832.648 1836.312 1839.686 1841.298 1842.911 1844.524 1846.136 1847.749 1849.24 1850.709 1852.211 1855.319 1858.426 1861.534 1864.614 1866.409 1868.204 1869.999 1871.794 1873.589 1874.256 1875.135 1874.136 1876.192 1879.071 1881.95 1884.829 1887.708 1890.588 1895.575 1902.234 1908.893 1915.553 1922.212 1928.871 1935.791 1941.313 1944.34 1947.375 1950.411 1953.446 1956.482 1959.517 1962.553 1964.023 1964.773 1965.522 1966.271 1967.021 1967.77 1968.519 1969.557 1968.76 1967.901 1967.042 1966.183 1965.324 1964.465 1963.606 1962.747 1960.719 1957.657 1954.595 1951.533 1948.471 1945.408 1942.756 1940.118 1937.001 1938.055 1939.864 1942.743 1945.718 1948.651 1950.893 1953.135 1955.377 1953.431 1949.981 1945.602 1939.547 1933.492 1927.437 1922.493 1919.984 1917.315 1914.646 1911.976 1909.307 1904.336 1896.826 1889.316 1881.807 1874.297 1866.788 1859.278 1850.87 1841.386 1831.901 1824.169 1816.845 1813.405 1808.492 1805.142 1807.778 1799.242 1797.447 1792.586 1787.724 1783.144 1779.005 1774.482 1770.317 1766.609 1762.9 1759.192 1754.765 1748.923 1743.362 1738.135 1732.907 1727.68 1722.548 1717.635 1712.723 1708.032 1703.705 1699.378 1692.249 1684.628 1677.006 1669.385 1661.763 1654.373 1647.472 1640.572 1630.674 1620.705 1612.199 1603.692 1595.186 1586.679 1578.173 1570.171 1563.597 1557.159 1550.721 1544.283 1537.845 1531.407 1524.96 1517.376 1509.792 1502.208 1494.806 1487.779 1480.752 1475.069 1470.564 1466.059 1461.194 1455.56 1449.926 1444.292 1439.222 1435.713 1432.242 1430.14 1429.483 1427.855 1425.826 1425.639 1427.041 1428.466 1430.035 1429.453 1427.69 1426.34 1424.352 1422.384 1420.654 1419.013 1416.97 1414.367 1410.807 1407.522 1402.294 1395.955 1390.768 1385.674 1381.266 1375.888 1369.615 1365.595 1361.896 1356.945 1351.994 1347.043 1342.093 1337.142 1331.707 1326.504 1322.807 1319.11 1315.495 1312.344 1309.193 1306.022 1302.704 1299.386 1296.068 1292.673 1287.469 1282.265 1276.892 1270.857 1264.821 1258.786 1252.751 1246.667 1239.646 1232.88 1226.79 1220.7 1214.609 1208.519 1202.429 1196.339 1190.196 1183.549 1177.165 1170.781 1164.396 1158.012 1151.18 1144.553 1141.644 1136.604 1129.584 1123.535 1115.209 1113 1110.673 1108.381 1106.095 1103.808 1101.522 1099.235 1096.665 1093.59 1091.508 1089.427 1087.346 1085.265 1083.183 1080.606 1077.528 1074.232 1070.937 1067.641 1064.345 1061.049 1056.433 1051.277 1046.225 1042.132 1038.039 1036.061 1034.581 1030.935 1026.237 1021.539 1016.841 1012.91 1008.638 1004.652 1003.005 1001.359 999.7133 998.0672 996.1945 994.2706 992.2131 989.4816 986.7501 984.0186 981.2871 978.5556 975.5972 972.6196 970.4756 968.3315 966.1876 964.0435 961.8995 958.0659 952.6114 947.157 941.3597 934.9872 928.6146 922.242 918.6373 915.0831 911.6841 908.2261 903.4324 898.4447 893.4571 888.4695 883.4819 878.6766 874.6152 870.5539 866.4926 862.7504 859.2993 855.8481 852.397 848.9459 846.2364 844.0848 842.1595 840.2342 838.4779 837.0059 835.5339 835.6059 836.1192 836.6324 837.1458 837.659 838.1723 838.7688
1838.547 1838.661 1839.264 1840.083 1841.336 1842.949 1844.561 1846.174 1847.787 1849.274 1852.037 1855.145 1858.253 1861.36 1864.468 1867.526 1869.321 1871.116 1872.911 1874.706 1876.501 1878.95 1880.54 1879.749 1880.392 1883.099 1885.805 1888.511 1891.217 1894.045 1899.108 1906.144 1913.615 1921.086 1928.557 1936.028 1943.499 1948.88 1951.316 1953.752 1956.676 1959.712 1962.747 1965.783 1968.818 1970.222 1970.971 1971.72 1972.47 1973.219 1975.053 1977.248 1978.825 1978.082 1977.339 1976.596 1975.853 1975.046 1974.187 1973.328 1972.469 1970.385 1967.322 1964.26 1961.198 1958.136 1955.074 1952.011 1948.949 1945.901 1948.057 1950.312 1952.567 1954.822 1956.978 1958.849 1961.803 1964.045 1961.509 1955.487 1949.432 1943.377 1937.322 1931.267 1926.762 1924.31 1921.641 1918.972 1916.302 1913.386 1907.223 1899.637 1892.051 1884.464 1876.878 1869.336 1861.826 1853.38 1845.398 1838.075 1830.751 1823.427 1820.484 1818.822 1814.74 1814.682 1809.459 1805.217 1800.355 1795.493 1790.631 1786.148 1781.625 1776.482 1771.669 1767.961 1764.252 1759.381 1753.54 1747.698 1742.35 1737.123 1731.895 1726.803 1721.891 1716.978 1712.066 1707.514 1703.01 1695.389 1687.767 1680.146 1672.983 1666.083 1659.182 1652.282 1644.805 1635.103 1623.826 1614.028 1605.521 1597.015 1588.508 1580.002 1572.256 1565.286 1558.688 1552.182 1545.743 1539.305 1532.867 1526.429 1518.961 1511.377 1503.881 1496.854 1489.827 1482.801 1476.999 1472.494 1467.989 1463.484 1458.682 1453.049 1447.415 1442.165 1438.337 1434.914 1433.239 1431.859 1430.275 1428.734 1427.927 1427.253 1428.697 1430.265 1431.698 1432.352 1431.142 1429.19 1427.118 1425.382 1424.016 1422.443 1419.627 1415.905 1412.473 1406.572 1400.146 1394.655 1390.205 1385.796 1380.382 1374.11 1367.9 1364.284 1359.911 1354.96 1350.009 1345.058 1339.97 1334.334 1329.157 1325.46 1321.763 1318.066 1314.46 1311.309 1308.134 1304.816 1301.498 1297.401 1292.197 1286.993 1281.79 1276.407 1270.372 1264.337 1258.302 1252.266 1246.231 1240.196 1234.24 1228.061 1221.882 1215.703 1209.524 1203.345 1197.166 1191.813 1185.919 1179.535 1173.151 1166.766 1160.382 1153.237 1147.966 1140.043 1138.393 1134.566 1127.339 1119.305 1117.088 1114.752 1112.43 1110.141 1107.854 1105.568 1103.281 1100.699 1097.464 1094.588 1092.507 1090.425 1088.344 1086.263 1083.674 1080.609 1077.467 1074.171 1070.875 1067.579 1064.283 1059.649 1054.493 1049.337 1044.361 1040.268 1037.302 1035.871 1032.42 1027.723 1023.024 1019.12 1014.965 1010.693 1006.731 1005.085 1003.439 1001.793 1000.147 998.5006 996.7762 994.7108 991.9793 989.2479 986.2645 983.271 980.2775 977.2841 973.2683 970.6899 968.5458 966.4019 964.2578 962.1138 958.2546 952.8002 947.3458 941.8914 935.951 929.5784 923.2059 919.6012 916.0469 912.6824 909.5621 905.3956 899.2913 894.3036 889.316 884.5725 880.5112 876.4498 872.3885 868.3271 864.5922 861.1411 857.6899 854.2388 851.511 849.2109 847.0634 845.1381 843.2128 841.2875 839.3622 837.449 836.774 837.2873 837.7416 838.1196 838.4976 838.8755 839.2535
1845.32 1844.666 1845.297 1846.116 1846.935 1847.754 1848.573 1849.072 1849.289 1851.935 1854.971 1858.079 1861.187 1864.294 1867.402 1870.438 1872.233 1874.028 1875.823 1878.52 1881.853 1885.187 1886.635 1885.583 1884.166 1886.709 1889.117 1891.343 1894.357 1897.911 1904.426 1912.903 1921.323 1928.793 1936.264 1943.735 1951.206 1956.448 1958.884 1961.32 1963.756 1966.192 1969.013 1972.049 1975.084 1976.42 1977.17 1977.919 1980 1982.196 1984.391 1986.586 1988.093 1987.35 1986.607 1985.864 1985.121 1984.378 1983.635 1982.892 1982.15 1980.03 1976.832 1973.635 1970.437 1967.239 1964.042 1960.844 1957.646 1954.449 1957.15 1959.324 1961.499 1963.673 1965.847 1968.022 1970.341 1973.276 1965.371 1959.316 1953.262 1947.207 1941.152 1935.097 1931.031 1928.636 1925.967 1923.298 1920.629 1916.372 1910.154 1902.568 1894.982 1887.395 1879.809 1872.223 1866.796 1859.37 1851.981 1844.657 1837.333 1830.01 1827.564 1825.901 1824.238 1821.587 1817.847 1812.986 1808.124 1803.262 1798.4 1793.538 1788.768 1783.625 1778.482 1773.339 1769.313 1763.997 1758.156 1752.315 1746.565 1741.338 1736.111 1731.059 1726.146 1721.234 1716.321 1711.408 1706.15 1698.528 1691.593 1684.693 1677.793 1670.892 1663.992 1657.092 1648.851 1639.342 1628.255 1616.978 1607.351 1598.844 1590.338 1581.831 1574.342 1567.096 1560.422 1553.824 1547.226 1540.766 1534.328 1527.89 1520.546 1512.962 1505.929 1498.902 1491.875 1484.849 1478.929 1474.424 1469.919 1465.414 1460.909 1456.171 1450.946 1445.738 1440.961 1438.012 1436.338 1434.019 1432.742 1431.953 1431.165 1430.376 1428.625 1430.001 1431.584 1434.197 1435.945 1434.165 1431.94 1430.111 1428.744 1427.291 1424.161 1420.67 1417.142 1410.759 1404.295 1399.126 1394.735 1390.327 1384.877 1378.605 1372.333 1366.589 1362.876 1357.925 1352.974 1348.023 1342.597 1336.96 1331.81 1328.113 1324.416 1320.719 1317.022 1313.425 1310.247 1306.929 1302.129 1296.925 1291.721 1286.517 1281.314 1275.923 1269.887 1263.852 1257.817 1251.782 1245.747 1240.486 1235.839 1228.001 1221.822 1215.643 1209.464 1203.285 1197.131 1191.752 1187.422 1181.905 1175.52 1169.136 1162.641 1155.294 1150.334 1142.869 1138.861 1137.861 1131.144 1123.729 1121.175 1118.839 1116.504 1114.187 1111.9 1109.614 1107.327 1104.733 1101.498 1098.263 1095.586 1093.505 1091.424 1089.343 1086.742 1083.677 1080.612 1077.406 1074.11 1070.814 1067.518 1062.865 1057.709 1052.553 1047.397 1042.498 1038.444 1037.161 1033.906 1029.208 1025.29 1021.291 1017.019 1012.747 1008.811 1007.165 1005.518 1003.872 1002.226 1000.58 998.9341 996.937 993.9383 990.9448 987.9514 984.9579 981.9645 978.971 974.9404 970.9041 968.7601 966.6161 964.4721 962.3281 958.4435 952.989 947.5346 942.0801 936.6257 930.5423 924.1697 920.565 917.1387 913.8802 910.4193 907.1606 900.8773 895.1501 890.4684 886.4071 882.3458 878.2844 874.2231 870.1617 866.4339 862.9828 859.5317 856.7856 854.4855 852.1853 850.0421 848.1167 846.1914 844.2661 842.3408 840.4155 837.7344 837.7446 838.1226 838.5005 838.8785 839.2565 839.6345
1851.244 1850.807 1851.329 1851.64 1851.856 1852.073 1852.29 1852.507 1852.723 1855.448 1858.385 1861.323 1864.26 1867.228 1870.336 1873.35 1875.145 1878.09 1881.423 1884.757 1888.09 1891.423 1892.73 1890.313 1887.03 1888.531 1891.588 1895.142 1898.696 1902.249 1908.888 1917.365 1925.841 1934.318 1942.794 1951.271 1958.914 1964.016 1966.452 1968.888 1971.324 1973.76 1976.195 1978.631 1981.35 1982.753 1984.948 1987.143 1989.339 1991.534 1993.729 1995.924 1997.361 1996.618 1995.875 1995.132 1994.389 1993.494 1992.572 1991.65 1990.729 1988.17 1984.533 1980.896 1977.259 1973.623 1969.986 1966.349 1962.712 1959.553 1965.028 1967.202 1969.377 1971.638 1974.573 1977.508 1980.444 1983.011 1973.01 1963.146 1957.091 1951.036 1944.982 1938.927 1935.299 1932.933 1930.293 1927.624 1924.092 1919.358 1913.085 1905.499 1897.913 1890.326 1884.401 1880.599 1876.796 1869.37 1858.563 1851.239 1843.915 1836.592 1834.644 1832.981 1831.318 1829.621 1824.114 1818.77 1813.427 1808.083 1802.74 1797.396 1793.056 1788.439 1783.559 1778.679 1773.799 1768.614 1762.772 1756.931 1751.09 1745.553 1740.326 1735.314 1730.402 1725.489 1720.576 1715.439 1710.892 1703.303 1696.403 1689.503 1682.602 1675.702 1668.802 1661.901 1652.897 1643.388 1632.685 1621.408 1610.13 1600.673 1592.167 1583.674 1576.427 1569.181 1562.157 1555.559 1548.961 1542.363 1535.789 1529.351 1522.131 1515.004 1507.977 1500.95 1493.924 1486.897 1480.859 1476.203 1471.248 1466.293 1461.338 1457.834 1454.012 1449.085 1444.105 1440.722 1437.621 1434.519 1436.133 1435.344 1434.554 1432.564 1430.174 1429.68 1431.554 1434.167 1436.75 1438.898 1436.596 1434.527 1433.074 1430.437 1426.705 1423.214 1419.435 1414.531 1408.067 1402.781 1398.821 1394.858 1389.372 1383.1 1376.827 1370.555 1365.278 1360.891 1355.94 1350.86 1345.223 1339.587 1334.463 1330.766 1327.069 1323.372 1319.675 1315.978 1312.061 1306.857 1301.653 1296.449 1291.245 1286.042 1280.838 1275.438 1269.403 1263.368 1257.332 1251.297 1246.093 1241.304 1237.023 1228.85 1221.763 1215.583 1209.404 1203.225 1197.943 1192.456 1187.067 1183.032 1177.89 1171.506 1164.583 1157.35 1152.935 1148.006 1141.272 1140.901 1135.519 1128.271 1125.263 1122.927 1120.591 1118.255 1115.946 1113.659 1111.373 1108.767 1105.532 1102.297 1099.062 1096.584 1094.503 1092.422 1089.81 1086.745 1083.681 1080.616 1077.345 1074.049 1070.753 1066.082 1060.926 1055.77 1050.614 1045.458 1040.634 1038.392 1035.391 1031.46 1027.617 1023.346 1019.074 1014.802 1010.89 1009.244 1007.598 1005.952 1004.306 1002.66 1000.842 998.7109 995.6252 992.6318 989.6383 986.6448 983.6514 980.658 976.6125 972.1503 968.9744 966.8304 964.6864 962.5424 958.6323 953.1779 947.7234 942.269 936.8145 931.3601 925.1336 921.595 918.2275 914.9575 911.6746 908.3125 903.034 896.8394 892.4199 888.2416 884.1803 880.119 876.0576 871.9963 868.2757 864.8245 862.0602 859.7601 857.4599 855.1597 853.0206 851.0953 849.17 847.2447 845.3194 842.2832 839.5451 838.1255 838.5035 838.8815 839.2595 839.6375 840.0154
1857.169 1856.732 1856.262 1855.783 1855.304 1855.508 1855.725 1855.941 1856.158 1858.96 1861.898 1864.835 1867.773 1870.71 1873.595 1876.531 1879.956 1883.289 1886.623 1889.956 1893.289 1896.623 1896.97 1893.911 1891.35 1891.648 1895.927 1899.481 1903.034 1906.588 1913.35 1921.826 1930.303 1938.78 1947.256 1954.982 1962.535 1968.615 1972.974 1975.387 1977.801 1980.214 1982.627 1985.041 1987.454 1989.955 1992.477 1994.999 1997.521 2000.044 2002.566 2005.088 2006.593 2005.671 2004.749 2003.828 2002.906 2001.984 2001.063 2000.141 1999.22 1996.603 1992.966 1989.329 1985.693 1982.056 1978.419 1974.927 1972.545 1970.164 1972.936 1975.554 1977.892 1980.23 1982.569 1984.907 1987.246 1989.219 1980.765 1971.936 1961.935 1954.866 1948.812 1942.757 1939.568 1937.202 1934.619 1931.811 1927.077 1922.344 1916.016 1908.43 1902.007 1898.204 1894.401 1890.599 1886.796 1879.37 1868.052 1857.821 1850.498 1843.386 1841.723 1840.06 1837.61 1832.488 1825.99 1820.374 1815.03 1809.687 1804.343 1799.625 1795.38 1791.374 1786.757 1781.877 1776.878 1770.731 1766.058 1761.385 1755.706 1749.865 1744.541 1739.57 1734.657 1729.425 1723.235 1718.011 1716.679 1710.595 1701.213 1694.312 1687.412 1680.512 1673.611 1666.453 1656.943 1647.434 1637.114 1625.837 1614.56 1603.283 1593.996 1585.759 1578.513 1571.267 1564.02 1557.293 1550.695 1544.097 1537.499 1530.901 1523.984 1516.884 1509.784 1502.685 1495.585 1488.486 1482.103 1477.113 1472.059 1467.005 1462.635 1459.073 1455.906 1451.739 1446.813 1443.425 1440.333 1436.989 1438.11 1438.525 1436.535 1434.546 1432.049 1429.359 1431.525 1433.952 1436.354 1438.845 1441.048 1438.857 1436.928 1433.02 1429.25 1425.652 1421.727 1417.802 1411.838 1406.437 1402.477 1398.29 1392.886 1387.218 1381.322 1375.05 1368.777 1363.856 1358.905 1353.487 1347.85 1342.213 1337.115 1333.418 1329.422 1325.348 1321.274 1317.2 1312.742 1306.687 1301.177 1295.974 1290.77 1285.566 1280.362 1274.954 1268.918 1262.883 1256.848 1251.699 1246.91 1242.121 1238.036 1230.717 1221.737 1215.524 1209.345 1203.166 1198.715 1193.028 1185.984 1182.581 1178.642 1173.876 1166.572 1159.331 1155.23 1152.118 1147.04 1141.989 1140.102 1132.812 1129.35 1127.015 1124.679 1122.343 1120.007 1117.705 1115.419 1112.802 1109.566 1106.331 1103.096 1099.86 1097.583 1095.502 1092.879 1089.814 1086.749 1083.684 1080.579 1077.283 1073.988 1069.298 1064.142 1058.986 1053.83 1048.674 1043.518 1039.534 1037.631 1033.907 1029.672 1025.4 1021.128 1016.857 1012.97 1011.324 1009.678 1008.031 1006.385 1004.526 1002.627 1000.485 997.3854 994.3187 991.3253 988.3318 985.3383 982.3449 978.2846 973.8224 969.3602 967.0447 964.9006 962.7567 958.8211 953.3666 947.9122 942.4578 937.0034 931.5489 926.0945 922.7032 919.3699 916.0366 912.7032 909.3699 905.2658 899.5475 895.1362 890.725 886.3137 881.9536 877.8922 873.8309 870.1174 867.3348 865.0347 862.7345 860.4343 858.1342 855.9993 854.0739 852.1486 850.2233 847.2252 844.082 841.3557 839.5778 838.8845 839.2624 839.6404 840.0184 840.3963
1863.094 1862.657 1862.186 1861.707 1861.228 1860.75 1860.271 1859.792 1859.593 1862.445 1865.32 1868.195 1871.07 1873.945 1876.82 1879.767 1883.332 1886.815 1890.148 1893.482 1896.815 1900.148 1900.378 1897.61 1894.842 1893.023 1897.435 1901.902 1906.619 1910.927 1917.812 1925.538 1933.09 1940.643 1948.196 1955.748 1963.301 1969.32 1973.892 1978.463 1983.034 1986.045 1988.458 1990.872 1993.285 1995.789 1998.311 2000.833 2003.355 2006.039 2009.606 2013.173 2015.439 2014.393 2013.346 2012.319 2011.397 2010.476 2009.554 2008.632 2007.711 2005.036 2001.4 1997.763 1994.126 1991.157 1988.776 1986.394 1984.013 1981.632 1983.112 1984.61 1986.109 1987.608 1989.107 1990.685 1993.024 1995.046 1986.592 1978.137 1969.682 1960.86 1952.641 1946.586 1943.836 1941.47 1938.945 1934.797 1930.063 1925.329 1919.613 1915.81 1912.007 1907.885 1903.438 1898.991 1894.543 1888.793 1878.052 1866.734 1857.08 1850.466 1848.803 1845.599 1841.004 1835.086 1828.588 1822.09 1816.633 1811.29 1806.362 1801.938 1797.704 1793.698 1789.692 1785.076 1779.857 1773.415 1768.122 1763.448 1758.775 1754.102 1748.756 1743.411 1737.221 1731.031 1724.841 1722.486 1721.155 1719.823 1710.297 1699.452 1692.222 1685.321 1678.421 1670.499 1660.99 1651.48 1641.543 1630.266 1618.989 1607.712 1596.435 1587.845 1580.599 1573.352 1566.106 1559.028 1552.43 1545.394 1538.295 1531.195 1525.275 1518.288 1511.188 1504.089 1496.989 1489.734 1483.332 1478.466 1473.463 1468.991 1464.948 1461.075 1457.376 1453.978 1449.467 1446.43 1443.58 1440.888 1441.634 1441.345 1439.074 1436.804 1435.201 1433.213 1431.153 1433.555 1435.958 1438.47 1441.001 1443.198 1439.511 1435.602 1431.794 1427.945 1424.02 1420.094 1415.61 1410.093 1406.101 1401.103 1395.677 1390.009 1384.341 1378.673 1373.005 1367 1361.75 1356.113 1350.031 1343.856 1338.373 1334.379 1330.305 1326.231 1322.157 1318.083 1313.602 1307.547 1301.491 1295.498 1290.294 1285.09 1279.886 1274.469 1268.434 1262.399 1257.306 1252.517 1247.727 1242.938 1238.881 1233.612 1223.428 1215.487 1209.285 1203.131 1199.308 1193.6 1186.846 1182.067 1178.161 1174.586 1168.608 1161.29 1157.523 1154.447 1151.301 1145.719 1143.429 1137.353 1133.438 1131.102 1128.766 1126.431 1124.095 1121.759 1119.465 1116.836 1113.6 1110.365 1107.13 1103.895 1100.662 1098.581 1095.947 1092.882 1089.817 1086.752 1083.687 1080.518 1077.222 1072.514 1067.358 1062.202 1057.046 1051.89 1046.978 1042.153 1039.482 1035.998 1031.727 1027.455 1023.183 1018.911 1015.049 1013.403 1011.757 1010.108 1008.209 1006.31 1004.412 1002.259 999.1592 996.0598 993.0121 990.0187 987.0253 984.0318 979.9567 975.4945 971.0323 967.259 965.1149 962.9709 959.0099 953.5555 948.101 942.6466 937.1921 931.8538 926.9702 923.7868 920.6034 917.3062 913.7968 910.3547 907.0741 902.2638 897.8525 893.4413 889.0301 884.6188 880.2076 875.7964 872.6094 870.3093 868.0091 865.709 863.4088 861.1086 858.9778 857.0526 855.1273 852.1672 849.0239 845.8807 843.1663 841.3884 839.6105 839.6433 840.0213 840.3993 840.7772
1869.019 1868.582 1868.11 1867.631 1867.152 1866.674 1866.195 1865.539 1864.71 1865.981 1868.545 1871.421 1874.296 1877.171 1880.046 1883.002 1886.568 1890.133 1893.674 1897.007 1900.341 1903.674 1903.786 1901.018 1898.25 1895.057 1898.744 1902.921 1907.628 1912.418 1918.624 1926.291 1933.857 1941.409 1948.962 1956.515 1964.068 1970.026 1974.597 1979.169 1983.74 1988.311 1992.883 1996.702 1999.116 2001.623 2004.226 2007.793 2011.361 2014.928 2018.495 2022.062 2024.328 2023.282 2022.235 2021.189 2020.142 2019.096 2018.049 2017.123 2016.202 2013.47 2009.833 2007.387 2005.005 2002.624 2000.243 1997.862 1995.48 1993.099 1993.919 1995.418 1996.917 1998.416 1999.914 2001.413 2001.66 2001.479 1992.906 1984.334 1975.763 1967.191 1958.619 1950.471 1948.105 1945.739 1942.383 1937.389 1932.395 1927.401 1922.444 1917.629 1913.182 1908.735 1904.288 1899.659 1894.644 1890.075 1883.757 1874.814 1865.416 1857.545 1853.588 1848.993 1844.181 1837.684 1831.186 1824.688 1818.236 1813.099 1808.675 1804.251 1800.028 1796.022 1792.016 1788.01 1782.836 1776.393 1770.186 1765.512 1760.839 1756.138 1751.031 1745.017 1738.827 1732.637 1728.293 1726.962 1725.63 1724.299 1720.845 1710 1699.154 1690.131 1683.23 1674.545 1665.036 1655.526 1645.972 1634.695 1623.418 1612.141 1600.343 1589.97 1582.723 1575.476 1568.229 1559.8 1552.703 1545.605 1538.506 1531.406 1525.631 1519.692 1512.592 1505.492 1498.393 1490.913 1484.561 1479.695 1475.342 1471.304 1467.262 1463.231 1459.531 1455.831 1452.266 1448.073 1444.161 1444.719 1444.793 1444.715 1442.728 1441.221 1440.198 1439.442 1437.213 1434.386 1435.565 1438.095 1440.579 1443.063 1444.563 1439.452 1434.201 1430.141 1426.312 1422.387 1418.462 1413.749 1408.914 1403.915 1398.469 1392.801 1387.133 1381.465 1375.797 1369.887 1363.001 1356.825 1350.65 1344.474 1339.019 1335.233 1331.188 1327.114 1323.04 1318.966 1314.462 1308.406 1302.351 1296.295 1290.24 1284.614 1279.41 1273.984 1267.949 1262.912 1258.123 1253.334 1248.545 1243.755 1239.726 1234.674 1224.137 1216.496 1209.237 1203.943 1199.901 1194.172 1187.916 1181.795 1178.229 1174.645 1170.676 1163.249 1159.816 1156.74 1153.664 1150.484 1145.116 1141.385 1137.526 1135.19 1132.854 1130.518 1128.182 1125.847 1123.511 1120.87 1117.635 1114.399 1111.164 1107.929 1104.693 1101.661 1099.015 1095.95 1092.885 1089.82 1086.756 1083.691 1080.457 1075.731 1070.575 1065.419 1060.543 1055.674 1050.805 1045.98 1041.356 1038.73 1033.891 1029.509 1025.237 1020.966 1017.129 1015.483 1013.792 1011.893 1009.994 1008.095 1006.196 1004.033 1000.933 997.8337 994.7343 991.7057 988.7122 985.7188 981.6288 977.1666 972.7044 968.2422 965.3292 963.1852 959.1987 953.7443 948.2899 942.8354 937.6354 932.7451 927.8994 924.7161 921.5327 918.3493 915.166 911.9825 908.5775 904.8942 900.3871 895.8801 891.3671 886.5783 882.0325 878.0786 875.4915 873.2477 870.9836 868.6834 866.3832 864.0831 861.9565 860.0312 857.1091 853.9659 850.8227 847.6795 844.977 843.199 841.4211 840.0242 840.4022 840.7802 841.1581
1876.425 1874.506 1874.034 1873.555 1873.077 1872.517 1871.688 1870.859 1870.058 1871.336 1872.614 1874.646 1877.521 1880.396 1883.271 1886.238 1889.803 1893.369 1896.934 1900.499 1903.866 1907.199 1907.195 1904.426 1901.287 1898.653 1899.25 1904.64 1910.008 1912.834 1919.127 1926.794 1934.462 1942.13 1949.729 1957.281 1964.834 1970.731 1975.303 1979.874 1984.445 1989.017 1993.588 1998.3 2003.1 2006.885 2010.547 2014.209 2017.87 2021.532 2025.194 2028.855 2032.74 2031.758 2030.711 2029.665 2028.618 2027.572 2026.525 2025.479 2024.432 2022.865 2021.054 2018.854 2016.473 2014.092 2011.71 2009.329 2006.948 2004.567 2004.727 2006.226 2007.725 2008.28 2008.313 2008.347 2008.381 2008.235 1999.663 1991.073 1982.271 1973.47 1964.668 1957.37 1952.41 1950.046 1944.885 1939.479 1934.218 1929.101 1924.144 1919.187 1914.23 1909.585 1904.71 1899.695 1894.796 1890.273 1885.751 1878.486 1868.34 1858.842 1853.87 1849.252 1843.872 1837.49 1831.135 1824.78 1818.444 1812.59 1807.435 1802.117 1797.151 1793.523 1789.895 1786.266 1781.798 1778 1772.93 1767.576 1762.715 1757.796 1752.386 1746.404 1740.422 1734.242 1732.769 1731.438 1729.742 1727.374 1724.249 1718.864 1708.604 1698.344 1688.04 1678.591 1669.082 1659.572 1650.063 1639.125 1627.848 1615.571 1604.459 1594.176 1584.868 1577.621 1570.373 1560.005 1552.907 1545.81 1538.712 1531.696 1525.987 1520.642 1513.996 1506.896 1499.588 1492.092 1485.79 1481.287 1477.639 1473.604 1469.569 1465.532 1461.687 1459.167 1457.035 1451.366 1446.515 1447.785 1448.987 1448.673 1447.172 1445.664 1444.571 1443.478 1441.682 1439.19 1436.756 1437.633 1440.1 1442.584 1443.86 1440.046 1437.773 1431.797 1427.996 1424.195 1420.394 1416.66 1411.726 1406.728 1401.26 1395.592 1389.924 1384.256 1377.878 1371.284 1364.082 1357.444 1351.269 1345.093 1339.665 1335.879 1332.071 1327.997 1323.923 1319.848 1315.322 1309.266 1303.211 1297.155 1291.1 1285.044 1278.989 1273.5 1268.519 1263.729 1258.94 1254.151 1249.362 1244.595 1240.571 1235.803 1228.657 1218.628 1211.496 1205.906 1202.112 1196.892 1190.592 1185.22 1179.848 1174.476 1171.17 1165.263 1162.109 1159.033 1155.957 1152.88 1149.668 1145.241 1141.613 1139.277 1136.942 1134.606 1132.27 1129.934 1127.644 1125.009 1121.773 1118.538 1115.303 1112.068 1108.832 1105.597 1101.719 1098.793 1095.867 1092.889 1089.824 1086.759 1083.692 1078.977 1074.108 1069.239 1064.37 1059.501 1054.632 1049.807 1045.183 1040.559 1036.501 1032.21 1027.464 1023.02 1019.208 1017.475 1015.576 1013.677 1011.779 1009.88 1007.981 1005.806 1002.707 999.6075 996.5082 993.4088 990.3992 987.4057 983.3009 978.8387 974.3765 969.9144 965.5435 963.3995 959.3875 953.9331 948.4786 943.4171 938.5267 933.6364 928.8287 925.6453 922.4619 919.2786 916.0952 912.9118 909.7285 906.5076 901.9617 897.173 892.6984 888.2256 884.0051 880.9149 878.3384 876.0947 873.851 871.6072 869.3577 867.0575 864.9351 862.0511 858.9079 855.7646 852.6215 849.4782 846.7876 845.0096 843.2318 841.4538 840.7831 841.1611 841.5391
1883.837 1880.431 1879.958 1879.479 1878.666 1877.837 1877.008 1876.178 1875.412 1876.691 1877.969 1879.247 1880.746 1883.621 1886.497 1889.474 1893.039 1896.604 1900.17 1903.735 1907.3 1910.725 1910.603 1907.716 1905.372 1903.756 1902.304 1907.636 1910.396 1913.249 1919.63 1927.297 1934.965 1942.633 1950.301 1957.968 1965.6 1971.437 1976.041 1980.841 1985.641 1990.44 1995.24 2000.04 2004.839 2008.598 2012.26 2015.922 2019.583 2023.245 2027.6 2032.355 2036.648 2038.893 2038.003 2037.093 2036.047 2035 2033.954 2032.907 2031.861 2030.293 2028.483 2026.672 2024.861 2023.051 2021.24 2019.43 2017.619 2015.809 2014.952 2015.189 2015.425 2015.661 2015.897 2016.134 2016.37 2016.091 2005.594 1996.793 1987.991 1979.19 1971.623 1964.709 1957.795 1953.164 1947.561 1941.894 1936.479 1931.045 1925.795 1920.842 1915.888 1909.388 1902.268 1896.652 1891.364 1886.872 1882.233 1877.297 1868.534 1859.11 1852.378 1847.76 1841.982 1835.48 1829.127 1822.818 1816.508 1810.198 1805.001 1798.885 1793.994 1790.369 1786.742 1783.113 1777.599 1773.748 1769.949 1765.203 1760.27 1755.338 1751.454 1745.893 1740.082 1735.258 1733.368 1731 1728.631 1726.263 1720.581 1716.925 1713.292 1703.461 1692.93 1683.207 1673.483 1663.76 1654.109 1643.264 1630.8 1618.982 1608.699 1598.416 1588.133 1579.765 1570.939 1560.209 1553.112 1546.06 1539.159 1532.257 1526.393 1521.003 1515.4 1508.262 1500.767 1493.272 1487.109 1484.036 1480.977 1477.049 1473.102 1469.155 1465.603 1463.688 1461.556 1454.842 1452.574 1453.08 1453.587 1453.345 1451.578 1450.091 1448.451 1446.888 1445.326 1442.875 1440.507 1439.347 1440.845 1442.29 1442.948 1443.412 1441.345 1434.942 1429.652 1425.851 1422.114 1418.405 1414.539 1409.54 1404.052 1398.384 1392.432 1385.869 1379.306 1372.443 1365.241 1358.063 1351.887 1345.712 1340.312 1336.525 1332.739 1328.88 1324.805 1320.731 1316.182 1310.126 1304.071 1298.015 1291.959 1285.904 1280.725 1273.81 1269.054 1264.313 1259.67 1254.968 1250.179 1245.441 1236.456 1231.269 1228.035 1224.8 1218.652 1210.502 1205.12 1199.562 1194.017 1188.645 1183.273 1177.901 1172.529 1167.478 1164.402 1161.326 1158.25 1155.173 1152.097 1148.846 1145.701 1143.365 1141.097 1138.838 1136.579 1134.32 1132.061 1129.413 1126.178 1122.943 1119.707 1116.472 1113.237 1107.662 1103.214 1100.288 1097.362 1094.436 1091.51 1088.584 1085.942 1082.652 1077.935 1073.066 1068.197 1063.328 1058.459 1053.635 1049.01 1043.841 1038.01 1033.691 1029.373 1025.097 1021.313 1019.26 1017.361 1015.462 1013.563 1011.664 1009.766 1007.58 1004.481 1001.381 998.282 995.1826 992.0861 989.0927 984.973 980.5108 976.0486 971.5864 967.1243 963.6138 959.5764 954.1219 949.1987 944.3083 939.418 934.5278 929.7579 926.5746 923.3912 920.2078 917.0245 913.8411 910.5518 906.9828 903.361 898.8915 894.4143 889.9316 886.8414 883.7513 881.1854 878.9417 876.6979 874.4542 872.2104 869.9667 866.9931 863.8499 860.7067 857.5634 854.4202 851.277 848.5982 846.8203 845.0424 843.2645 841.4865 841.5421 841.92
1891.249 1886.67 1885.644 1884.815 1883.986 1883.156 1882.327 1881.498 1880.767 1882.045 1883.323 1884.602 1885.88 1887.158 1889.722 1892.71 1896.275 1899.84 1903.405 1906.971 1910.536 1913.917 1914.746 1912.743 1910.885 1909.137 1907.389 1907.958 1910.811 1913.665 1920.133 1927.8 1935.468 1943.136 1950.803 1957.495 1963.613 1970.135 1976.949 1982.58 1987.38 1992.18 1996.979 2001.779 2006.579 2010.312 2013.973 2017.635 2021.807 2026.563 2031.318 2036.073 2040.334 2043.595 2045.047 2044.157 2043.267 2042.378 2041.382 2040.336 2039.289 2037.722 2035.911 2034.101 2032.29 2030.479 2028.415 2026.174 2023.933 2021.692 2020.955 2021.736 2022.512 2023.265 2024.018 2024.771 2025.524 2024.855 2013.991 2003.128 1993.711 1985.875 1978.917 1970.449 1961.981 1954.071 1948.123 1942.175 1936.106 1931.917 1927.727 1922.489 1916.466 1909.346 1902.225 1895.105 1887.985 1883.027 1878.091 1873.155 1868.219 1859.378 1851.68 1846.269 1840.091 1832.887 1826.305 1820.292 1814.279 1808.261 1802.01 1795.652 1790.838 1787.212 1783.587 1779.96 1773.998 1769.495 1764.993 1760.16 1755.231 1751.905 1748.222 1743.179 1737.969 1732.605 1730.992 1729.38 1727.521 1722.696 1716.912 1711.338 1706.705 1703.228 1697.06 1686.091 1675.122 1664.153 1653.722 1650.163 1637.674 1624.217 1613.689 1603.162 1592.634 1582.107 1571.109 1560.424 1553.522 1546.621 1539.72 1532.818 1526.813 1521.424 1516.22 1510.055 1502.993 1495.93 1490.94 1488.46 1485.411 1481.639 1477.763 1473.816 1470.792 1465.802 1465.629 1457.473 1458.308 1457.68 1458.187 1458.17 1455.971 1454.483 1452.512 1450.303 1448.737 1446.559 1444.257 1441.982 1441.329 1441.474 1441.976 1443.315 1442.313 1437.081 1431.849 1427.568 1423.859 1420.15 1416.44 1412.353 1406.844 1400.423 1393.86 1387.297 1380.734 1373.601 1366.4 1359.198 1352.506 1346.331 1340.958 1337.172 1333.385 1329.599 1325.688 1321.614 1317.041 1310.986 1304.93 1298.875 1292.819 1289.95 1284.811 1275.791 1267.881 1262.705 1259.561 1254.981 1251.17 1242.552 1236.301 1231.562 1226.822 1222.082 1217.342 1212.603 1207.863 1202.973 1197.951 1192.929 1187.907 1182.885 1177.863 1173.012 1169.762 1166.513 1163.264 1160.015 1156.766 1153.237 1150.032 1147.773 1145.514 1143.255 1140.996 1138.736 1136.477 1133.818 1130.582 1127.347 1124.112 1120.876 1115.815 1109.112 1104.709 1101.783 1098.857 1095.931 1093.005 1090.268 1088.092 1084.787 1081.2 1076.894 1072.025 1067.155 1062.286 1057.462 1052.837 1046.562 1040.059 1035.919 1031.692 1027.414 1024.138 1021.47 1019.146 1017.247 1015.348 1013.449 1011.55 1009.354 1006.255 1003.155 1000.056 996.9565 993.8571 990.7795 986.6451 982.1829 977.7207 973.2585 968.7963 964.3342 959.8706 954.9803 950.09 945.1997 940.3094 935.4191 930.6872 927.5038 924.3204 921.1371 917.9537 914.596 910.7997 906.5731 905 900.5835 895.9566 892.7679 889.6778 886.5876 884.0323 881.7886 879.5449 877.3011 875.0574 872.5477 869.4221 865.6798 862.5054 859.3622 856.219 853.0757 850.4089 848.6309 846.853 845.0751 843.2971 841.923 842.301
1898.661 1894.082 1892.305 1890.843 1889.38 1888.476 1887.647 1886.817 1886.122 1887.4 1888.678 1889.956 1891.234 1892.512 1893.791 1895.946 1899.446 1902.595 1905.745 1908.894 1912.043 1915.193 1916.211 1915.798 1915.277 1913.66 1912.042 1910.474 1911.227 1914.08 1920.636 1928.303 1934.995 1941.113 1947.231 1953.349 1959.466 1965.989 1972.802 1979.615 1986.429 1993.242 1998.719 2003.519 2008.318 2012.025 2016.015 2020.77 2025.525 2030.281 2035.036 2039.792 2044.021 2047.281 2050.542 2051.2 2050.31 2049.421 2048.531 2047.641 2046.718 2045.15 2043.007 2040.766 2038.526 2036.285 2034.044 2031.803 2029.562 2027.321 2026.635 2027.411 2028.191 2028.979 2029.762 2030.515 2031.267 2030.664 2020.239 2009.814 1998.539 1988.871 1980.403 1971.935 1963.488 1955.505 1948.404 1942.456 1935.808 1930.62 1926.431 1922.109 1915.805 1908.649 1901.493 1894.337 1887.174 1880.642 1875.446 1870.25 1865.054 1858.616 1851.868 1844.745 1837.174 1829.35 1822.303 1815.968 1809.955 1803.945 1797.922 1791.876 1787.319 1783.668 1780.016 1775.707 1769.964 1764.758 1759.926 1755.093 1750.193 1748.892 1744.99 1739.947 1734.903 1729.641 1726.42 1723.762 1720.879 1716.092 1709.731 1703.594 1699.697 1695.617 1690.438 1682.964 1671.995 1661.026 1655.569 1651.169 1644.043 1630.106 1619.579 1609.075 1599.033 1588.725 1577.462 1564.847 1555.803 1548.862 1541.92 1534.583 1529.528 1524.453 1519.255 1514.003 1507.7 1500.637 1496.697 1492.884 1489.846 1486.073 1482.3 1478.477 1475.667 1473.247 1466.001 1463.674 1464.613 1463.256 1462.787 1462.995 1460.786 1458.876 1456.774 1454.565 1452.356 1450.283 1447.888 1445.448 1442.342 1440.659 1440.804 1441.815 1440.274 1434.573 1429.467 1426.183 1422.9 1419.616 1416.333 1413.488 1408.414 1401.851 1395.288 1388.725 1381.962 1374.76 1367.559 1360.357 1353.155 1346.949 1341.604 1337.818 1334.031 1330.245 1326.459 1322.497 1317.901 1311.846 1305.79 1301.766 1299.174 1296.582 1286.189 1277.957 1269.859 1263.012 1259.967 1258.194 1255.855 1249.316 1243.096 1238.357 1233.617 1228.877 1224.137 1219.397 1214.654 1209.33 1203.903 1198.881 1193.859 1188.837 1183.815 1178.992 1175.743 1172.494 1169.245 1165.995 1162.392 1158.248 1155.046 1152.243 1149.931 1147.671 1145.412 1143.153 1140.894 1138.222 1134.987 1131.752 1128.516 1123.969 1117.266 1110.563 1106.204 1103.278 1100.352 1097.426 1094.594 1092.418 1090.243 1086.922 1083.335 1079.748 1075.852 1070.983 1066.114 1061.289 1056.341 1049.647 1043.293 1038.214 1033.932 1030.099 1026.963 1024.295 1021.627 1019.032 1017.133 1015.234 1013.335 1011.128 1008.029 1004.929 1001.83 998.7304 995.631 992.4267 988.167 983.6953 979.2236 974.7518 970.2801 965.8083 960.9277 955.8716 950.9813 946.091 941.2007 936.3104 931.6165 928.4331 925.2497 922.0663 918.6403 914.5461 910.3195 906.0927 905 902.1258 898.6945 895.6043 892.5142 889.424 886.8793 884.6356 882.3918 880.1069 877.5924 875.078 871.9375 868.1951 864.4528 861.1609 858.0177 854.8745 852.2195 850.4415 848.6636 846.8857 845.1078 843.3298 842.6819
1906.073 1901.494 1899.777 1898.315 1896.852 1895.39 1893.928 1892.465 1891.476 1892.733 1893.895 1895.057 1896.219 1897.381 1898.542 1899.531 1900.722 1903.871 1907.021 1910.17 1913.319 1916.469 1917.438 1917.025 1916.612 1916.199 1915.786 1914.19 1914.439 1915.335 1919.222 1924.731 1930.849 1936.966 1943.084 1949.202 1955.32 1961.843 1968.656 1975.469 1982.282 1989.096 1995.909 2002.722 2009.456 2014.818 2019.733 2024.488 2029.244 2033.999 2038.754 2043.51 2047.707 2050.968 2054.228 2057.489 2057.354 2056.464 2055.574 2054.685 2054.854 2052.683 2048.927 2046.396 2044.155 2041.914 2039.673 2037.432 2035.192 2032.951 2032.314 2033.09 2033.866 2034.645 2035.434 2036.222 2037.01 2036.129 2025.024 2013.251 2002.238 1991.518 1981.889 1973.421 1965.121 1957.138 1949.156 1942.738 1936.061 1929.377 1924.993 1920.567 1914.782 1907.615 1900.459 1893.303 1886.002 1878.937 1873.741 1868.26 1861.523 1854.78 1848.026 1840.795 1833.536 1825.812 1818.414 1812.041 1806.293 1799.626 1793.609 1787.224 1782.948 1779.602 1775.952 1769.799 1763.753 1759.855 1755.206 1750.182 1746.907 1745.879 1741.7 1736.345 1730.99 1725.075 1718.717 1715.826 1712.524 1708.981 1702.962 1696.827 1691.751 1687.672 1682.595 1675.284 1667.973 1660.474 1654.519 1648.564 1643.179 1636.069 1626.027 1615.985 1605.944 1595.063 1582.179 1569.564 1559.961 1551.216 1544.275 1535.648 1531.371 1527.488 1522.289 1517.032 1511.758 1506.339 1502.412 1498.223 1493.176 1489.213 1485.249 1482.236 1482.22 1480.631 1474.752 1470.359 1470.844 1469.562 1468.204 1467.819 1465.611 1463.213 1460.689 1458.381 1456.074 1453.766 1451.339 1448.899 1445.72 1442.534 1439.988 1440.315 1438.774 1432.064 1427.726 1424.443 1421.159 1418.364 1415.848 1413.332 1409.297 1403.279 1396.716 1390.153 1383.121 1375.919 1368.717 1361.516 1354.314 1347.568 1342.25 1338.464 1334.678 1330.891 1327.105 1323.319 1318.761 1313.582 1310.99 1308.399 1305.807 1298.811 1288.169 1281.523 1272.623 1266.233 1264.501 1261.886 1260.748 1256.079 1249.891 1245.151 1240.412 1235.672 1230.932 1226.188 1221.444 1216.106 1210.389 1204.833 1199.811 1194.789 1189.767 1184.972 1181.723 1178.474 1175.225 1171.546 1167.403 1163.259 1160.075 1157.272 1154.469 1152.088 1149.829 1147.57 1145.31 1142.627 1139.391 1136.156 1132.122 1125.419 1118.716 1112.014 1107.699 1104.773 1101.847 1098.921 1096.744 1094.569 1092.393 1089.057 1085.47 1081.883 1078.296 1074.708 1069.941 1065.116 1059.234 1052.867 1046.484 1040.441 1036.205 1032.691 1029.788 1027.12 1024.452 1021.785 1019.117 1017.019 1015.12 1012.902 1009.802 1006.703 1003.604 1000.404 997.1612 993.9187 989.5489 985.0717 980.5999 976.1282 971.6564 967.1848 962.2979 957.1307 951.9636 946.9824 942.092 937.2017 932.5457 929.3624 926.179 922.5192 918.2925 914.0659 909.8391 905.6124 905 904.4306 901.5308 898.4407 895.3505 892.2604 889.7263 887.4825 885.1516 882.6371 880.1227 877.6083 874.4528 870.7105 866.9681 863.2258 859.8165 856.6733 854.0301 852.2522 850.4742 848.6963 846.9184 845.1404 843.1857
1913.73 1908.906 1907.249 1905.786 1904.324 1902.862 1901.4 1900.375 1899.264 1897.288 1898.358 1899.52 1900.682 1901.844 1903.005 1903.979 1904.249 1905.147 1908.297 1911.446 1914.595 1917.745 1918.665 1918.253 1917.84 1917.427 1917.014 1916.598 1916.425 1917.282 1921.296 1925.945 1930.594 1935.244 1939.893 1945.056 1951.174 1957.696 1964.51 1971.23 1977.845 1984.46 1991.075 1997.689 2004.304 2009.666 2015.005 2020.344 2025.683 2031.022 2036.361 2043.889 2050.181 2054.476 2057.915 2061.175 2064.396 2063.507 2062.617 2062.633 2064.28 2061.941 2058.185 2054.429 2050.673 2047.543 2045.302 2043.062 2040.821 2038.58 2037.994 2038.77 2039.546 2040.322 2041.1 2041.888 2042.676 2038.298 2028.176 2016.656 2005.937 1995.217 1984.497 1974.906 1966.754 1958.771 1950.789 1942.997 1935.984 1928.849 1923.377 1919.119 1913.793 1906.58 1899.425 1892.227 1884.831 1877.434 1871.161 1864.425 1857.688 1850.846 1843.616 1836.385 1829.132 1821.869 1814.525 1811.036 1807.323 1798.856 1790.977 1782.501 1778.536 1775.26 1771.144 1763.892 1757.541 1754.126 1750.87 1746.108 1740.707 1740.237 1736.522 1731.55 1726.486 1720.51 1714.152 1708.081 1704.169 1700.626 1696.193 1690.252 1684.618 1679.726 1674.753 1667.442 1661.394 1656.266 1650.721 1644.453 1637.836 1633.07 1629.298 1620.044 1609.696 1599.781 1586.897 1574.282 1564.678 1555.075 1545.43 1536.818 1533.214 1529.609 1525.324 1520.06 1515.286 1510.85 1506.66 1501.886 1496.08 1490.889 1487.099 1486.549 1486.482 1484.371 1478.93 1478.025 1479.139 1477.174 1475.242 1472.532 1469.911 1467.33 1464.595 1461.861 1459.454 1457.146 1454.79 1452.285 1449.099 1445.912 1442.726 1439.54 1437.274 1429.556 1425.986 1423.24 1420.724 1418.208 1415.692 1413.176 1409.117 1404.7 1398.144 1391.481 1384.279 1377.078 1369.876 1362.674 1355.473 1348.271 1342.896 1339.11 1335.324 1331.538 1327.751 1325.167 1323.83 1320.923 1318.333 1315.779 1311.49 1301.576 1291.023 1282.708 1276.271 1269.72 1266.988 1266.548 1265.64 1262.842 1256.686 1251.946 1247.207 1242.467 1237.722 1232.978 1228.233 1222.881 1217.164 1211.448 1205.763 1200.741 1195.719 1190.952 1187.703 1184.454 1180.701 1176.557 1172.414 1168.27 1165.103 1162.3 1159.497 1156.694 1154.245 1151.986 1149.727 1147.031 1143.796 1140.276 1133.573 1126.87 1120.167 1113.464 1109.194 1106.268 1103.342 1101.07 1098.895 1096.719 1094.543 1091.192 1087.605 1084.018 1080.431 1076.843 1073.256 1068.843 1062.479 1056.216 1049.9 1043.585 1039.015 1035.284 1032.613 1029.945 1027.278 1024.61 1021.942 1019.274 1016.904 1014.676 1011.576 1008.381 1005.138 1001.896 998.6532 995.4106 991.0182 986.448 981.9763 977.5045 973.0328 968.5611 963.668 958.5009 953.3337 948.1666 942.9995 938.0931 933.475 930.2916 926.2656 922.0389 917.8123 913.5855 909.3588 905.1321 905 905 903.1608 901.0444 898.1869 895.0967 892.5732 890.1963 887.6819 885.1675 882.6531 880.1387 876.9681 873.2258 869.4835 865.7411 861.9988 858.472 855.8408 854.0628 852.2849 850.2678 848.1778 846.0878 844.0004
1921.726 1916.318 1914.721 1913.258 1911.859 1910.841 1909.824 1908.806 1907.679 1905.703 1903.727 1903.983 1905.145 1906.306 1907.468 1908.428 1908.698 1908.967 1909.573 1912.722 1915.871 1919.021 1919.893 1919.48 1919.067 1918.654 1918.233 1917.896 1918.096 1919.259 1923.369 1928.019 1932.668 1937.317 1941.967 1945.121 1947.948 1952.993 1959.531 1966.079 1972.693 1979.308 1985.923 1992.538 1999.153 2004.515 2009.854 2015.192 2022.072 2029.683 2037.294 2044.906 2051.108 2055.403 2059.698 2063.994 2068.122 2070.55 2070.411 2072.059 2073.707 2071.199 2067.443 2063.687 2059.931 2056.175 2052.419 2048.691 2046.45 2044.209 2043.673 2044.449 2045.225 2046.001 2046.777 2047.554 2047.979 2038.271 2028.888 2019.354 2008.786 1998.142 1987.498 1976.719 1967.82 1959.659 1951.497 1942.757 1934.961 1927.816 1922.038 1917.67 1912.805 1905.572 1898.39 1891.055 1883.624 1876.264 1869.632 1862.73 1855.715 1847.731 1840.274 1832.816 1827.092 1820.945 1816.062 1812.758 1808.353 1801.094 1793.918 1785.225 1775.584 1771.152 1769.004 1760.621 1755.351 1749.952 1747.489 1741.946 1736.391 1734.009 1730.13 1725.654 1721.041 1716.142 1709.938 1703.985 1699.262 1694.369 1689.476 1683.678 1678.043 1672.409 1666.91 1661.354 1656.435 1651.458 1645.176 1638.081 1631.49 1627.717 1622.977 1617.437 1608.852 1599.179 1589.369 1578.999 1566.757 1555.534 1546.554 1538.661 1535.057 1531.452 1528.182 1524.129 1519.547 1515.098 1510.838 1505.032 1499.226 1493.475 1491.161 1490.672 1489.606 1484.703 1483.076 1486.273 1486.059 1483.876 1481.842 1476.842 1474.089 1471.447 1468.713 1465.978 1463.244 1460.526 1458.218 1455.664 1452.478 1449.291 1446.105 1441.808 1436.041 1427.522 1425.599 1423.083 1420.567 1418.051 1415.535 1413.019 1408.937 1404.52 1399.572 1392.64 1385.438 1378.236 1371.035 1363.833 1356.632 1349.43 1343.93 1341.41 1338.889 1336.369 1333.848 1331.431 1333.272 1330.466 1323.961 1318.071 1311.918 1305.036 1294.741 1285.427 1278.29 1272.172 1270.697 1270.711 1270.553 1269.605 1263.481 1258.741 1254.001 1249.256 1244.512 1239.767 1235.022 1229.656 1223.94 1218.223 1212.506 1206.789 1201.671 1196.932 1193.683 1189.856 1185.712 1181.569 1177.425 1173.281 1170.132 1167.329 1164.526 1161.723 1158.919 1156.403 1154.144 1151.436 1148.2 1141.726 1135.024 1128.321 1121.618 1114.915 1110.689 1107.763 1105.396 1103.221 1101.045 1098.869 1096.693 1093.327 1089.74 1086.152 1082.565 1078.978 1075.768 1072.778 1066.515 1060.268 1054.054 1047.839 1041.765 1038.106 1035.438 1032.771 1030.103 1027.435 1024.767 1022.099 1019.363 1016.358 1013.115 1009.873 1006.63 1003.388 1000.145 996.9026 992.4874 987.8466 983.3526 978.8809 974.4092 969.9374 965.0383 959.8711 954.704 949.5368 944.3697 939.2025 934.2576 930.4677 926.6778 922.8879 919.098 915.3082 911.5182 907.7284 905.7184 905.2642 904.1172 901.9622 899.8073 897.6578 895.241 892.7266 890.2122 887.6978 885.1833 882.6689 879.4835 875.7411 871.9988 868.2565 864.5142 860.7719 857.3497 855.2598 853.1698 851.0798 848.9898 846.8998 844.8333
1929.723 1923.73 1922.325 1921.307 1920.29 1919.272 1918.254 1917.237 1916.093 1914.117 1912.141 1910.165 1909.608 1910.769 1911.931 1912.877 1913.147 1913.416 1913.686 1913.998 1917.147 1920.297 1921.12 1920.707 1920.294 1919.878 1919.631 1918.821 1918.939 1921.235 1925.443 1928.885 1931.713 1934.54 1937.368 1940.195 1943.023 1948.165 1954.703 1961.241 1967.78 1974.318 1980.856 1987.394 1994.001 2000.254 2007.865 2015.477 2023.088 2030.699 2038.311 2045.922 2052.035 2056.33 2060.625 2064.921 2068.443 2072.193 2078.467 2080.025 2081.583 2080.276 2076.542 2072.809 2069.075 2065.341 2061.607 2057.873 2054.139 2050.406 2049.412 2050.385 2051.359 2052.333 2053.307 2054.281 2048.469 2039.166 2029.687 2020.174 2010.563 2000.038 1989.394 1977.702 1968.226 1960.064 1951.354 1942.539 1934.548 1926.888 1921.795 1918.066 1912.578 1905.242 1897.385 1889.776 1882.313 1875.24 1868.649 1861.991 1854.176 1846.165 1838.194 1832.432 1827.262 1822.09 1818.634 1815.249 1810.456 1803.877 1796.717 1788.934 1779.516 1772.096 1768.776 1765.809 1759.074 1752.467 1744.607 1737.995 1732.128 1727.37 1725.235 1722.539 1717.649 1712.165 1705.916 1699.866 1695.277 1689.21 1682.237 1675.99 1670.52 1665.922 1660.88 1655.71 1650.821 1646.303 1639.802 1632.104 1625.493 1620.401 1615.222 1609.968 1605.144 1598.456 1588.916 1577.854 1565.76 1556.78 1547.721 1540.913 1537.652 1534.391 1530.901 1526.956 1523.807 1519.346 1513.985 1508.393 1503.12 1497.848 1494.356 1493.281 1490.953 1488.168 1491.904 1495.499 1494.404 1490.578 1486.153 1481.152 1478.266 1475.565 1472.83 1470.096 1467.361 1464.626 1461.892 1458.763 1454.331 1449.898 1445.466 1441.034 1435.148 1427.073 1423.913 1422.927 1420.411 1417.895 1415.379 1412.863 1408.756 1404.34 1399.922 1390.62 1382.934 1375.248 1367.561 1359.875 1353.218 1351.366 1349.935 1345.996 1345.014 1342.53 1340.009 1340.88 1338.89 1332.992 1327.093 1320.682 1312.356 1305.385 1296.348 1288.451 1281.054 1278.253 1276.907 1275.739 1274.782 1274.558 1270.276 1265.535 1260.791 1256.046 1251.301 1246.556 1241.812 1236.432 1230.715 1224.998 1219.282 1213.565 1207.848 1202.912 1199.01 1194.867 1190.723 1186.58 1182.436 1178.293 1175.16 1172.357 1169.554 1166.751 1163.948 1161.145 1158.56 1155.84 1149.88 1143.177 1136.474 1129.771 1123.068 1116.365 1112.184 1109.723 1107.547 1105.371 1103.195 1101.019 1098.844 1095.462 1091.875 1088.287 1084.7 1082.317 1080.119 1077.054 1070.79 1064.527 1058.263 1052 1045.768 1040.894 1038.085 1035.276 1032.492 1029.769 1027.332 1024.523 1021.982 1018.598 1014.607 1011.365 1008.122 1004.88 1001.637 998.3947 993.9567 989.3159 984.729 980.2573 975.7855 971.3138 966.4084 961.2413 956.0742 950.907 945.7399 940.602 936.8601 933.4819 929.692 925.9022 922.1122 918.3224 914.5325 910.7502 908.7537 906.7573 905.9876 903.6534 901.3213 899.7192 897.4209 895.1595 892.7425 890.2281 887.7137 885.1993 881.9988 878.2565 874.5142 870.7719 867.1212 863.5016 859.2787 856.0718 853.9818 851.8918 849.8018 847.7119 845.6662
1937.719 1931.569 1930.66 1929.738 1928.72 1927.703 1926.685 1925.667 1924.507 1922.531 1920.555 1918.579 1916.603 1915.232 1916.394 1917.326 1917.595 1917.865 1918.135 1918.404 1918.674 1921.573 1922.347 1921.931 1921.523 1921.371 1921.424 1921.221 1921.019 1923.103 1924.262 1925.253 1926.787 1929.615 1932.442 1935.27 1938.097 1943.337 1949.875 1956.413 1962.952 1969.49 1975.793 1982.096 1988.403 1996.818 2005.233 2013.648 2022.063 2030.478 2038.893 2046.939 2052.863 2055.618 2058.372 2061.126 2064.121 2072.012 2079.904 2086.344 2088.314 2088.716 2085.462 2081.728 2077.994 2074.26 2070.526 2066.792 2063.059 2060.557 2058.381 2057.476 2059.394 2061.254 2061.613 2054.819 2047.87 2039.971 2030.487 2020.995 2011.384 2001.773 1990.488 1978.686 1968.631 1959.951 1951.136 1942.322 1934.177 1928.93 1923.037 1919.484 1914.288 1905.911 1897.11 1889.264 1881.506 1876.09 1870.323 1864.209 1855.487 1847.551 1836.926 1833.727 1828.639 1820.984 1820.354 1817.62 1812.067 1804.318 1799.795 1792.497 1783.681 1777.795 1770.117 1770.664 1764.176 1756.665 1745.125 1734.772 1734.868 1726.523 1723.897 1719.782 1713.856 1708.188 1703.317 1697.175 1691.076 1685.82 1678.061 1671.451 1665.89 1662.094 1656.223 1650.087 1644.885 1640.895 1636.554 1628.686 1620.557 1613.883 1607.985 1602.996 1598.193 1593.061 1588.419 1575.984 1566.318 1556.721 1550.56 1545.518 1540.6 1537.338 1533.613 1529.27 1526.166 1522.957 1518.038 1512.766 1507.493 1502.62 1499.178 1496.544 1495.908 1496.165 1499.397 1502.378 1498.852 1495.326 1490.463 1485.463 1482.417 1479.682 1476.948 1474.213 1471.478 1467.894 1463.806 1458.833 1453.556 1449.124 1444.692 1440.259 1434.254 1426.623 1420.132 1420.477 1420.254 1417.738 1415.222 1412.706 1408.576 1404.16 1399.735 1391.729 1380.517 1369.907 1362.236 1360.384 1358.532 1356.68 1355.319 1351.557 1347.83 1346.112 1345.122 1343.152 1339.606 1334.65 1328.831 1322.403 1314.22 1306.91 1298.924 1287.806 1287.923 1286.308 1284.693 1283.078 1281.463 1279.847 1277.069 1272.324 1267.58 1262.835 1258.09 1253.346 1248.601 1243.208 1237.491 1231.774 1226.057 1220.107 1213.965 1208.198 1204.038 1199.878 1195.734 1191.591 1187.447 1183.304 1180.189 1177.386 1174.583 1171.78 1168.976 1166.173 1163.217 1158.592 1151.676 1144.76 1137.925 1131.222 1124.519 1117.816 1114.049 1111.873 1109.697 1107.521 1105.345 1103.17 1100.994 1097.596 1094.009 1091.064 1088.866 1086.668 1084.471 1081.329 1075.066 1068.802 1062.539 1056.275 1050.012 1042.605 1040.222 1037.826 1035.228 1032.417 1029.616 1027.225 1024.754 1021.049 1016.436 1012.857 1009.614 1006.372 1003.129 999.8867 995.4259 990.7852 986.1443 981.6336 977.1619 972.6901 967.7787 962.6115 957.4443 952.2772 947.11 943.0863 939.3517 936.1213 932.7063 928.9164 925.1265 921.3366 917.5468 913.7855 911.7891 909.7926 907.7961 904.9344 903.5862 901.6802 899.4189 897.1575 894.8962 892.6348 890.244 887.7296 884.5142 880.7719 877.1212 873.5016 869.882 866.2623 862.0209 856.8839 854.7938 852.7039 850.6139 848.5239 846.4991
1945.393 1939.677 1938.778 1937.88 1936.982 1936.083 1935.116 1934.098 1932.921 1930.945 1928.969 1926.993 1925.017 1923.041 1921.065 1921.774 1922.044 1922.314 1922.583 1922.853 1923.122 1923.392 1923.691 1924.002 1924.141 1924.28 1924.419 1924.558 1924.697 1925.08 1926.295 1927.286 1928.278 1929.269 1930.26 1931.252 1933.172 1938.509 1944.848 1951.15 1957.453 1963.755 1970.057 1976.36 1982.721 1991.136 1999.551 2007.966 2016.381 2024.797 2033.563 2042.466 2048.301 2051.055 2053.81 2056.564 2063.94 2071.832 2079.723 2087.113 2093.399 2095.39 2094.381 2090.647 2086.914 2083.18 2079.446 2075.712 2073.533 2071.417 2069.241 2067.017 2064.933 2066.85 2061.085 2053.013 2046.064 2039.002 2030.516 2021.803 2012.422 2003.237 1992.201 1980.179 1970.256 1961.864 1953.385 1944.907 1937.46 1932.118 1926.066 1920.672 1914.59 1905.763 1896.925 1889.697 1884.306 1879.323 1872.856 1867.38 1857.186 1849.667 1835.678 1833.271 1826.939 1820.052 1821.208 1813.516 1807.976 1801.951 1800.479 1794.842 1784.526 1780.184 1776.343 1771.023 1767.504 1759.315 1746.822 1737.081 1727.895 1727.181 1725.086 1719.365 1712.791 1706.937 1701.912 1695.089 1687.247 1681.787 1675.717 1671.569 1666.853 1663.165 1656.602 1650.488 1644.478 1640.257 1634.453 1625.119 1616.979 1611.124 1603.313 1596.024 1590.266 1585.095 1579.623 1571.514 1565.721 1560.238 1555.188 1550.149 1545.112 1540.286 1536.326 1531.983 1527.942 1523.859 1519.589 1515.286 1510.983 1506.411 1501.091 1500.395 1501.79 1504.162 1506.534 1505.234 1502.348 1499.462 1494.98 1489.773 1486.534 1483.8 1481.045 1476.957 1472.869 1468.781 1464.693 1459.41 1453.259 1448.349 1443.917 1439.485 1433.36 1426.173 1419.641 1416.695 1417.04 1417.385 1415.066 1412.55 1408.396 1403.973 1399.547 1392.928 1381.716 1372.343 1367.235 1365.698 1363.846 1361.994 1360.407 1359.367 1353.915 1349.099 1345.672 1344.327 1341.393 1336.131 1330.304 1324.67 1318.551 1308.606 1300.718 1295.898 1296.601 1294.985 1293.37 1291.575 1288.612 1285.648 1282.094 1277.634 1273.174 1268.714 1264.254 1259.793 1255.333 1249.723 1243.581 1237.439 1231.297 1225.155 1219.013 1213.271 1209.111 1204.951 1200.791 1196.631 1192.471 1188.315 1185.18 1182.076 1178.971 1175.867 1172.762 1169.657 1166.553 1162.497 1156.749 1149.833 1142.917 1136.001 1129.085 1122.169 1118.105 1115.37 1112.636 1109.901 1107.496 1105.32 1103.144 1099.81 1097.613 1095.415 1093.217 1091.02 1088.822 1085.604 1079.341 1073.078 1066.814 1060.551 1054.139 1043.696 1041.288 1040.311 1037.51 1034.714 1032.425 1029.866 1027.813 1023.5 1018.887 1014.349 1011.106 1007.864 1004.621 1001.379 996.8952 992.2544 987.6136 983.0099 978.5382 974.0665 969.1489 963.9817 958.8146 953.6474 949.4351 945.5706 941.8433 938.6129 935.3824 931.9306 928.1407 924.3508 920.561 916.8209 914.8244 912.8279 910.0565 907.5191 906.0136 903.6783 901.4169 899.1556 896.8942 894.6329 892.3715 890.1102 887.1212 883.5016 879.882 876.2623 872.6427 869.023 864.7631 859.6223 855.6059 853.5159 851.4259 849.3359 847.332
